ply
format ascii 1.0
element vertex 1112
property float x
property float y
property float z
property uchar red
property uchar green
property uchar blue
property uchar alpha
end_header
-0.447575 0.459352 -0.210802 53 186 25 255
-0.446305 0.459352 -0.213002 53 186 25 255
-0.445035 0.459352 -0.215202 53 186 25 255
-0.443764 0.459352 -0.217403 53 186 25 255
-0.442494 0.459352 -0.219602 53 186 25 255
-0.441224 0.459352 -0.221803 53 186 25 255
-0.439954 0.459352 -0.224003 53 186 25 255
-0.438683 0.459352 -0.226203 53 186 25 255
-0.437413 0.459352 -0.228403 53 186 25 255
-0.436143 0.459352 -0.230604 53 186 25 255
-0.434873 0.459352 -0.232803 53 186 25 255
-0.433602 0.459352 -0.235004 53 186 25 255
-0.432332 0.459352 -0.237204 53 186 25 255
-0.499656 0.461892 -0.120596 53 186 25 255
-0.498385 0.461892 -0.122796 53 186 25 255
-0.497115 0.461892 -0.124996 53 186 25 255
-0.495845 0.461892 -0.127197 53 186 25 255
-0.494575 0.461892 -0.129396 53 186 25 255
-0.493304 0.461892 -0.131597 53 186 25 255
-0.492034 0.461892 -0.133797 53 186 25 255
-0.490764 0.461892 -0.135997 53 186 25 255
-0.489494 0.461892 -0.138197 53 186 25 255
-0.488223 0.461892 -0.140398 53 186 25 255
-0.486953 0.461892 -0.142597 53 186 25 255
-0.485683 0.461892 -0.144798 53 186 25 255
-0.484413 0.461892 -0.146998 53 186 25 255
-0.483142 0.461892 -0.149198 53 186 25 255
-0.481872 0.461892 -0.151398 53 186 25 255
-0.480602 0.461892 -0.153598 53 186 25 255
-0.479332 0.461892 -0.155798 53 186 25 255
-0.478061 0.461892 -0.157999 53 186 25 255
-0.476791 0.461892 -0.160198 53 186 25 255
-0.475521 0.461892 -0.162399 53 186 25 255
-0.474251 0.461892 -0.164599 53 186 25 255
-0.457737 0.461892 -0.193201 53 186 25 255
-0.456467 0.461892 -0.195401 53 186 25 255
-0.455197 0.461892 -0.197601 53 186 25 255
-0.453926 0.461892 -0.199802 53 186 25 255
-0.452656 0.461892 -0.202001 53 186 25 255
-0.451386 0.461892 -0.204202 53 186 25 255
-0.450116 0.461892 -0.206402 53 186 25 255
-0.448845 0.461892 -0.208602 53 186 25 255
-0.447575 0.461892 -0.210802 53 186 25 255
-0.446305 0.461892 -0.213002 53 186 25 255
-0.445035 0.461892 -0.215202 53 186 25 255
-0.443764 0.461892 -0.217403 53 186 25 255
-0.442494 0.461892 -0.219602 53 186 25 255
-0.441224 0.461892 -0.221803 53 186 25 255
-0.439954 0.461892 -0.224003 53 186 25 255
-0.438683 0.461892 -0.226203 53 186 25 255
-0.437413 0.461892 -0.228403 53 186 25 255
-0.436143 0.461892 -0.230604 53 186 25 255
-0.434873 0.461892 -0.232803 53 186 25 255
-0.433602 0.461892 -0.235004 53 186 25 255
-0.432332 0.461892 -0.237204 53 186 25 255
-0.499656 0.464433 -0.120596 53 186 25 255
-0.498385 0.464433 -0.122796 53 186 25 255
-0.497115 0.464433 -0.124996 53 186 25 255
-0.495845 0.464433 -0.127197 53 186 25 255
-0.494575 0.464433 -0.129396 53 186 25 255
-0.493304 0.464433 -0.131597 53 186 25 255
-0.492034 0.464433 -0.133797 53 186 25 255
-0.490764 0.464433 -0.135997 53 186 25 255
-0.489494 0.464433 -0.138197 53 186 25 255
-0.488223 0.464433 -0.140398 53 186 25 255
-0.486953 0.464433 -0.142597 53 186 25 255
-0.485683 0.464433 -0.144798 53 186 25 255
-0.484413 0.464433 -0.146998 53 186 25 255
-0.483142 0.464433 -0.149198 53 186 25 255
-0.481872 0.464433 -0.151398 53 186 25 255
-0.480602 0.464433 -0.153598 53 186 25 255
-0.479332 0.464433 -0.155798 53 186 25 255
-0.478061 0.464433 -0.157999 53 186 25 255
-0.476791 0.464433 -0.160198 53 186 25 255
-0.475521 0.464433 -0.162399 53 186 25 255
-0.474251 0.464433 -0.164599 53 186 25 255
-0.457737 0.464433 -0.193201 53 186 25 255
-0.456467 0.464433 -0.195401 53 186 25 255
-0.455197 0.464433 -0.197601 53 186 25 255
-0.453926 0.464433 -0.199802 53 186 25 255
-0.452656 0.464433 -0.202001 53 186 25 255
-0.451386 0.464433 -0.204202 53 186 25 255
-0.450116 0.464433 -0.206402 53 186 25 255
-0.448845 0.464433 -0.208602 53 186 25 255
-0.447575 0.464433 -0.210802 53 186 25 255
-0.446305 0.464433 -0.213002 53 186 25 255
-0.445035 0.464433 -0.215202 53 186 25 255
-0.443764 0.464433 -0.217403 53 186 25 255
-0.442494 0.464433 -0.219602 53 186 25 255
-0.441224 0.464433 -0.221803 53 186 25 255
-0.439954 0.464433 -0.224003 53 186 25 255
-0.438683 0.464433 -0.226203 53 186 25 255
-0.437413 0.464433 -0.228403 53 186 25 255
-0.436143 0.464433 -0.230604 53 186 25 255
-0.434873 0.464433 -0.232803 53 186 25 255
-0.433602 0.464433 -0.235004 53 186 25 255
-0.432332 0.464433 -0.237204 53 186 25 255
-0.499656 0.466973 -0.120596 53 186 25 255
-0.498385 0.466973 -0.122796 53 186 25 255
-0.497115 0.466973 -0.124996 53 186 25 255
-0.495845 0.466973 -0.127197 53 186 25 255
-0.494575 0.466973 -0.129396 53 186 25 255
-0.493304 0.466973 -0.131597 53 186 25 255
-0.492034 0.466973 -0.133797 53 186 25 255
-0.490764 0.466973 -0.135997 53 186 25 255
-0.489494 0.466973 -0.138197 53 186 25 255
-0.488223 0.466973 -0.140398 53 186 25 255
-0.486953 0.466973 -0.142597 53 186 25 255
-0.485683 0.466973 -0.144798 53 186 25 255
-0.484413 0.466973 -0.146998 53 186 25 255
-0.483142 0.466973 -0.149198 53 186 25 255
-0.481872 0.466973 -0.151398 53 186 25 255
-0.480602 0.466973 -0.153598 53 186 25 255
-0.479332 0.466973 -0.155798 53 186 25 255
-0.478061 0.466973 -0.157999 53 186 25 255
-0.476791 0.466973 -0.160198 53 186 25 255
-0.475521 0.466973 -0.162399 53 186 25 255
-0.474251 0.466973 -0.164599 53 186 25 255
-0.457737 0.466973 -0.193201 53 186 25 255
-0.456467 0.466973 -0.195401 53 186 25 255
-0.455197 0.466973 -0.197601 53 186 25 255
-0.453926 0.466973 -0.199802 53 186 25 255
-0.452656 0.466973 -0.202001 53 186 25 255
-0.451386 0.466973 -0.204202 53 186 25 255
-0.450116 0.466973 -0.206402 53 186 25 255
-0.448845 0.466973 -0.208602 53 186 25 255
-0.447575 0.466973 -0.210802 53 186 25 255
-0.446305 0.466973 -0.213002 53 186 25 255
-0.445035 0.466973 -0.215202 53 186 25 255
-0.443764 0.466973 -0.217403 53 186 25 255
-0.442494 0.466973 -0.219602 53 186 25 255
-0.441224 0.466973 -0.221803 53 186 25 255
-0.439954 0.466973 -0.224003 53 186 25 255
-0.438683 0.466973 -0.226203 53 186 25 255
-0.437413 0.466973 -0.228403 53 186 25 255
-0.436143 0.466973 -0.230604 53 186 25 255
-0.434873 0.466973 -0.232803 53 186 25 255
-0.433602 0.466973 -0.235004 53 186 25 255
-0.432332 0.466973 -0.237204 53 186 25 255
-0.499656 0.469514 -0.120596 53 186 25 255
-0.498385 0.469514 -0.122796 53 186 25 255
-0.497115 0.469514 -0.124996 53 186 25 255
-0.495845 0.469514 -0.127197 53 186 25 255
-0.494575 0.469514 -0.129396 53 186 25 255
-0.493304 0.469514 -0.131597 53 186 25 255
-0.492034 0.469514 -0.133797 53 186 25 255
-0.490764 0.469514 -0.135997 53 186 25 255
-0.489494 0.469514 -0.138197 53 186 25 255
-0.488223 0.469514 -0.140398 53 186 25 255
-0.486953 0.469514 -0.142597 53 186 25 255
-0.485683 0.469514 -0.144798 53 186 25 255
-0.484413 0.469514 -0.146998 53 186 25 255
-0.483142 0.469514 -0.149198 53 186 25 255
-0.481872 0.469514 -0.151398 53 186 25 255
-0.480602 0.469514 -0.153598 53 186 25 255
-0.479332 0.469514 -0.155798 53 186 25 255
-0.478061 0.469514 -0.157999 53 186 25 255
-0.476791 0.469514 -0.160198 53 186 25 255
-0.475521 0.469514 -0.162399 53 186 25 255
-0.474251 0.469514 -0.164599 53 186 25 255
-0.466629 0.469514 -0.177799 53 186 25 255
-0.465359 0.469514 -0.180000 53 186 25 255
-0.457737 0.469514 -0.193201 53 186 25 255
-0.456467 0.469514 -0.195401 53 186 25 255
-0.455197 0.469514 -0.197601 53 186 25 255
-0.453926 0.469514 -0.199802 53 186 25 255
-0.452656 0.469514 -0.202001 53 186 25 255
-0.451386 0.469514 -0.204202 53 186 25 255
-0.450116 0.469514 -0.206402 53 186 25 255
-0.448845 0.469514 -0.208602 53 186 25 255
-0.447575 0.469514 -0.210802 53 186 25 255
-0.446305 0.469514 -0.213002 53 186 25 255
-0.445035 0.469514 -0.215202 53 186 25 255
-0.443764 0.469514 -0.217403 53 186 25 255
-0.442494 0.469514 -0.219602 53 186 25 255
-0.441224 0.469514 -0.221803 53 186 25 255
-0.439954 0.469514 -0.224003 53 186 25 255
-0.438683 0.469514 -0.226203 53 186 25 255
-0.437413 0.469514 -0.228403 53 186 25 255
-0.436143 0.469514 -0.230604 53 186 25 255
-0.434873 0.469514 -0.232803 53 186 25 255
-0.433602 0.469514 -0.235004 53 186 25 255
-0.432332 0.469514 -0.237204 53 186 25 255
-0.499656 0.472054 -0.120596 53 186 25 255
-0.498385 0.472054 -0.122796 53 186 25 255
-0.497115 0.472054 -0.124996 53 186 25 255
-0.495845 0.472054 -0.127197 53 186 25 255
-0.494575 0.472054 -0.129396 53 186 25 255
-0.493304 0.472054 -0.131597 53 186 25 255
-0.492034 0.472054 -0.133797 53 186 25 255
-0.490764 0.472054 -0.135997 53 186 25 255
-0.489494 0.472054 -0.138197 53 186 25 255
-0.488223 0.472054 -0.140398 53 186 25 255
-0.486953 0.472054 -0.142597 53 186 25 255
-0.485683 0.472054 -0.144798 53 186 25 255
-0.484413 0.472054 -0.146998 53 186 25 255
-0.483142 0.472054 -0.149198 53 186 25 255
-0.481872 0.472054 -0.151398 53 186 25 255
-0.480602 0.472054 -0.153598 53 186 25 255
-0.479332 0.472054 -0.155798 53 186 25 255
-0.478061 0.472054 -0.157999 53 186 25 255
-0.476791 0.472054 -0.160198 53 186 25 255
-0.475521 0.472054 -0.162399 53 186 25 255
-0.474251 0.472054 -0.164599 53 186 25 255
-0.466629 0.472054 -0.177799 53 186 25 255
-0.465359 0.472054 -0.180000 53 186 25 255
-0.464088 0.472054 -0.182201 53 186 25 255
-0.457737 0.472054 -0.193201 53 186 25 255
-0.456467 0.472054 -0.195401 53 186 25 255
-0.455197 0.472054 -0.197601 53 186 25 255
-0.453926 0.472054 -0.199802 53 186 25 255
-0.452656 0.472054 -0.202001 53 186 25 255
-0.451386 0.472054 -0.204202 53 186 25 255
-0.450116 0.472054 -0.206402 53 186 25 255
-0.448845 0.472054 -0.208602 53 186 25 255
-0.447575 0.472054 -0.210802 53 186 25 255
-0.446305 0.472054 -0.213002 53 186 25 255
-0.445035 0.472054 -0.215202 53 186 25 255
-0.443764 0.472054 -0.217403 53 186 25 255
-0.442494 0.472054 -0.219602 53 186 25 255
-0.441224 0.472054 -0.221803 53 186 25 255
-0.439954 0.472054 -0.224003 53 186 25 255
-0.438683 0.472054 -0.226203 53 186 25 255
-0.437413 0.472054 -0.228403 53 186 25 255
-0.436143 0.472054 -0.230604 53 186 25 255
-0.434873 0.472054 -0.232803 53 186 25 255
-0.433602 0.472054 -0.235004 53 186 25 255
-0.432332 0.472054 -0.237204 53 186 25 255
-0.499656 0.474595 -0.120596 53 186 25 255
-0.498385 0.474595 -0.122796 53 186 25 255
-0.497115 0.474595 -0.124996 53 186 25 255
-0.495845 0.474595 -0.127197 53 186 25 255
-0.494575 0.474595 -0.129396 53 186 25 255
-0.493304 0.474595 -0.131597 53 186 25 255
-0.492034 0.474595 -0.133797 53 186 25 255
-0.490764 0.474595 -0.135997 53 186 25 255
-0.489494 0.474595 -0.138197 53 186 25 255
-0.488223 0.474595 -0.140398 53 186 25 255
-0.486953 0.474595 -0.142597 53 186 25 255
-0.485683 0.474595 -0.144798 53 186 25 255
-0.484413 0.474595 -0.146998 53 186 25 255
-0.483142 0.474595 -0.149198 53 186 25 255
-0.481872 0.474595 -0.151398 53 186 25 255
-0.480602 0.474595 -0.153598 53 186 25 255
-0.479332 0.474595 -0.155798 53 186 25 255
-0.478061 0.474595 -0.157999 53 186 25 255
-0.476791 0.474595 -0.160198 53 186 25 255
-0.475521 0.474595 -0.162399 53 186 25 255
-0.474251 0.474595 -0.164599 53 186 25 255
-0.467899 0.474595 -0.175600 53 186 25 255
-0.466629 0.474595 -0.177799 53 186 25 255
-0.465359 0.474595 -0.180000 53 186 25 255
-0.464088 0.474595 -0.182201 53 186 25 255
-0.457737 0.474595 -0.193201 53 186 25 255
-0.456467 0.474595 -0.195401 53 186 25 255
-0.455197 0.474595 -0.197601 53 186 25 255
-0.453926 0.474595 -0.199802 53 186 25 255
-0.452656 0.474595 -0.202001 53 186 25 255
-0.451386 0.474595 -0.204202 53 186 25 255
-0.450116 0.474595 -0.206402 53 186 25 255
-0.448845 0.474595 -0.208602 53 186 25 255
-0.447575 0.474595 -0.210802 53 186 25 255
-0.446305 0.474595 -0.213002 53 186 25 255
-0.445035 0.474595 -0.215202 53 186 25 255
-0.443764 0.474595 -0.217403 53 186 25 255
-0.442494 0.474595 -0.219602 53 186 25 255
-0.441224 0.474595 -0.221803 53 186 25 255
-0.439954 0.474595 -0.224003 53 186 25 255
-0.438683 0.474595 -0.226203 53 186 25 255
-0.437413 0.474595 -0.228403 53 186 25 255
-0.436143 0.474595 -0.230604 53 186 25 255
-0.434873 0.474595 -0.232803 53 186 25 255
-0.433602 0.474595 -0.235004 53 186 25 255
-0.432332 0.474595 -0.237204 53 186 25 255
-0.499656 0.477135 -0.120596 53 186 25 255
-0.498385 0.477135 -0.122796 53 186 25 255
-0.497115 0.477135 -0.124996 53 186 25 255
-0.495845 0.477135 -0.127197 53 186 25 255
-0.494575 0.477135 -0.129396 53 186 25 255
-0.493304 0.477135 -0.131597 53 186 25 255
-0.492034 0.477135 -0.133797 53 186 25 255
-0.490764 0.477135 -0.135997 53 186 25 255
-0.489494 0.477135 -0.138197 53 186 25 255
-0.488223 0.477135 -0.140398 53 186 25 255
-0.486953 0.477135 -0.142597 53 186 25 255
-0.485683 0.477135 -0.144798 53 186 25 255
-0.484413 0.477135 -0.146998 53 186 25 255
-0.483142 0.477135 -0.149198 53 186 25 255
-0.481872 0.477135 -0.151398 53 186 25 255
-0.480602 0.477135 -0.153598 53 186 25 255
-0.479332 0.477135 -0.155798 53 186 25 255
-0.478061 0.477135 -0.157999 53 186 25 255
-0.476791 0.477135 -0.160198 53 186 25 255
-0.475521 0.477135 -0.162399 53 186 25 255
-0.474251 0.477135 -0.164599 53 186 25 255
-0.469170 0.477135 -0.173399 53 186 25 255
-0.467899 0.477135 -0.175600 53 186 25 255
-0.466629 0.477135 -0.177799 53 186 25 255
-0.465359 0.477135 -0.180000 53 186 25 255
-0.464088 0.477135 -0.182201 53 186 25 255
-0.462818 0.477135 -0.184400 53 186 25 255
-0.457737 0.477135 -0.193201 53 186 25 255
-0.456467 0.477135 -0.195401 53 186 25 255
-0.455197 0.477135 -0.197601 53 186 25 255
-0.453926 0.477135 -0.199802 53 186 25 255
-0.452656 0.477135 -0.202001 53 186 25 255
-0.451386 0.477135 -0.204202 53 186 25 255
-0.450116 0.477135 -0.206402 53 186 25 255
-0.448845 0.477135 -0.208602 53 186 25 255
-0.447575 0.477135 -0.210802 53 186 25 255
-0.446305 0.477135 -0.213002 53 186 25 255
-0.445035 0.477135 -0.215202 53 186 25 255
-0.443764 0.477135 -0.217403 53 186 25 255
-0.442494 0.477135 -0.219602 53 186 25 255
-0.441224 0.477135 -0.221803 53 186 25 255
-0.439954 0.477135 -0.224003 53 186 25 255
-0.438683 0.477135 -0.226203 53 186 25 255
-0.437413 0.477135 -0.228403 53 186 25 255
-0.436143 0.477135 -0.230604 53 186 25 255
-0.434873 0.477135 -0.232803 53 186 25 255
-0.433602 0.477135 -0.235004 53 186 25 255
-0.432332 0.477135 -0.237204 53 186 25 255
-0.504162 0.479464 -0.122373 53 186 25 255
-0.502879 0.479464 -0.124596 53 186 25 255
-0.501595 0.479464 -0.126819 53 186 25 255
-0.500312 0.479464 -0.129042 53 186 25 255
-0.494575 0.479676 -0.129396 53 186 25 255
-0.493304 0.479676 -0.131597 53 186 25 255
-0.492034 0.479676 -0.133797 53 186 25 255
-0.490764 0.479676 -0.135997 53 186 25 255
-0.489494 0.479676 -0.138197 53 186 25 255
-0.488223 0.479676 -0.140398 53 186 25 255
-0.486953 0.479676 -0.142597 53 186 25 255
-0.485683 0.479676 -0.144798 53 186 25 255
-0.484413 0.479676 -0.146998 53 186 25 255
-0.483142 0.479676 -0.149198 53 186 25 255
-0.481872 0.479676 -0.151398 53 186 25 255
-0.480602 0.479676 -0.153598 53 186 25 255
-0.479332 0.479676 -0.155798 53 186 25 255
-0.482343 0.479464 -0.160165 53 186 25 255
-0.481060 0.479464 -0.162388 53 186 25 255
-0.479776 0.479464 -0.164611 53 186 25 255
-0.478493 0.479464 -0.166834 53 186 25 255
-0.470440 0.479676 -0.171199 53 186 25 255
-0.469170 0.479676 -0.173399 53 186 25 255
-0.467899 0.479676 -0.175600 53 186 25 255
-0.466629 0.479676 -0.177799 53 186 25 255
-0.465359 0.479676 -0.180000 53 186 25 255
-0.464088 0.479676 -0.182201 53 186 25 255
-0.462818 0.479676 -0.184400 53 186 25 255
-0.461548 0.479676 -0.186601 53 186 25 255
-0.461807 0.479464 -0.195734 53 186 25 255
-0.460524 0.479464 -0.197957 53 186 25 255
-0.459240 0.479464 -0.200180 53 186 25 255
-0.457957 0.479464 -0.202403 53 186 25 255
-0.456673 0.479464 -0.204626 53 186 25 255
-0.451386 0.479676 -0.204202 53 186 25 255
-0.450116 0.479676 -0.206402 53 186 25 255
-0.448845 0.479676 -0.208602 53 186 25 255
-0.447575 0.479676 -0.210802 53 186 25 255
-0.446305 0.479676 -0.213002 53 186 25 255
-0.445035 0.479676 -0.215202 53 186 25 255
-0.443764 0.479676 -0.217403 53 186 25 255
-0.442494 0.479676 -0.219602 53 186 25 255
-0.441224 0.479676 -0.221803 53 186 25 255
-0.439954 0.479676 -0.224003 53 186 25 255
-0.438683 0.479676 -0.226203 53 186 25 255
-0.437413 0.479676 -0.228403 53 186 25 255
-0.439988 0.479464 -0.233526 53 186 25 255
-0.438705 0.479464 -0.235749 53 186 25 255
-0.437421 0.479464 -0.237972 53 186 25 255
-0.436138 0.479464 -0.240195 53 186 25 255
-0.494575 0.482216 -0.129396 53 186 25 255
-0.493304 0.482216 -0.131597 53 186 25 255
-0.492034 0.482216 -0.133797 53 186 25 255
-0.490764 0.482216 -0.135997 53 186 25 255
-0.489494 0.482216 -0.138197 53 186 25 255
-0.488223 0.482216 -0.140398 53 186 25 255
-0.486953 0.482216 -0.142597 53 186 25 255
-0.485683 0.482216 -0.144798 53 186 25 255
-0.484413 0.482216 -0.146998 53 186 25 255
-0.483142 0.482216 -0.149198 53 186 25 255
-0.481872 0.482216 -0.151398 53 186 25 255
-0.480602 0.482216 -0.153598 53 186 25 255
-0.479332 0.482216 -0.155798 53 186 25 255
-0.470440 0.482216 -0.171199 53 186 25 255
-0.469170 0.482216 -0.173399 53 186 25 255
-0.467899 0.482216 -0.175600 53 186 25 255
-0.466629 0.482216 -0.177799 53 186 25 255
-0.465359 0.482216 -0.180000 53 186 25 255
-0.464088 0.482216 -0.182201 53 186 25 255
-0.462818 0.482216 -0.184400 53 186 25 255
-0.461548 0.482216 -0.186601 53 186 25 255
-0.460278 0.482216 -0.188801 53 186 25 255
-0.457305 0.482002 -0.205038 53 186 25 255
-0.451386 0.482216 -0.204202 53 186 25 255
-0.450116 0.482216 -0.206402 53 186 25 255
-0.448845 0.482216 -0.208602 53 186 25 255
-0.447575 0.482216 -0.210802 53 186 25 255
-0.446305 0.482216 -0.213002 53 186 25 255
-0.445035 0.482216 -0.215202 53 186 25 255
-0.443764 0.482216 -0.217403 53 186 25 255
-0.442494 0.482216 -0.219602 53 186 25 255
-0.441224 0.482216 -0.221803 53 186 25 255
-0.439954 0.482216 -0.224003 53 186 25 255
-0.438683 0.482216 -0.226203 53 186 25 255
-0.437413 0.482216 -0.228403 53 186 25 255
-0.494575 0.484757 -0.129396 53 186 25 255
-0.493304 0.484757 -0.131597 53 186 25 255
-0.492034 0.484757 -0.133797 53 186 25 255
-0.490764 0.484757 -0.135997 53 186 25 255
-0.489494 0.484757 -0.138197 53 186 25 255
-0.488223 0.484757 -0.140398 53 186 25 255
-0.486953 0.484757 -0.142597 53 186 25 255
-0.485683 0.484757 -0.144798 53 186 25 255
-0.484413 0.484757 -0.146998 53 186 25 255
-0.483142 0.484757 -0.149198 53 186 25 255
-0.481872 0.484757 -0.151398 53 186 25 255
-0.480602 0.484757 -0.153598 53 186 25 255
-0.479332 0.484757 -0.155798 53 186 25 255
-0.471710 0.484757 -0.168999 53 186 25 255
-0.470440 0.484757 -0.171199 53 186 25 255
-0.469170 0.484757 -0.173399 53 186 25 255
-0.467899 0.484757 -0.175600 53 186 25 255
-0.466629 0.484757 -0.177799 53 186 25 255
-0.465359 0.484757 -0.180000 53 186 25 255
-0.464088 0.484757 -0.182201 53 186 25 255
-0.462818 0.484757 -0.184400 53 186 25 255
-0.461548 0.484757 -0.186601 53 186 25 255
-0.460278 0.484757 -0.188801 53 186 25 255
-0.457305 0.484573 -0.205038 53 186 25 255
-0.451386 0.484757 -0.204202 53 186 25 255
-0.450116 0.484757 -0.206402 53 186 25 255
-0.448845 0.484757 -0.208602 53 186 25 255
-0.447575 0.484757 -0.210802 53 186 25 255
-0.446305 0.484757 -0.213002 53 186 25 255
-0.445035 0.484757 -0.215202 53 186 25 255
-0.443764 0.484757 -0.217403 53 186 25 255
-0.442494 0.484757 -0.219602 53 186 25 255
-0.441224 0.484757 -0.221803 53 186 25 255
-0.439954 0.484757 -0.224003 53 186 25 255
-0.438683 0.484757 -0.226203 53 186 25 255
-0.437413 0.484757 -0.228403 53 186 25 255
-0.494575 0.487297 -0.129396 53 186 25 255
-0.493304 0.487297 -0.131597 53 186 25 255
-0.492034 0.487297 -0.133797 53 186 25 255
-0.490764 0.487297 -0.135997 53 186 25 255
-0.489494 0.487297 -0.138197 53 186 25 255
-0.488223 0.487297 -0.140398 53 186 25 255
-0.486953 0.487297 -0.142597 53 186 25 255
-0.485683 0.487297 -0.144798 53 186 25 255
-0.484413 0.487297 -0.146998 53 186 25 255
-0.483142 0.487297 -0.149198 53 186 25 255
-0.481872 0.487297 -0.151398 53 186 25 255
-0.480602 0.487297 -0.153598 53 186 25 255
-0.479332 0.487297 -0.155798 53 186 25 255
-0.472980 0.487297 -0.166799 53 186 25 255
-0.471710 0.487297 -0.168999 53 186 25 255
-0.470440 0.487297 -0.171199 53 186 25 255
-0.469170 0.487297 -0.173399 53 186 25 255
-0.467899 0.487297 -0.175600 53 186 25 255
-0.466629 0.487297 -0.177799 53 186 25 255
-0.465359 0.487297 -0.180000 53 186 25 255
-0.464088 0.487297 -0.182201 53 186 25 255
-0.462818 0.487297 -0.184400 53 186 25 255
-0.461548 0.487297 -0.186601 53 186 25 255
-0.460278 0.487297 -0.188801 53 186 25 255
-0.459007 0.487297 -0.191001 53 186 25 255
-0.457305 0.487144 -0.205038 53 186 25 255
-0.451386 0.487297 -0.204202 53 186 25 255
-0.450116 0.487297 -0.206402 53 186 25 255
-0.448845 0.487297 -0.208602 53 186 25 255
-0.447575 0.487297 -0.210802 53 186 25 255
-0.446305 0.487297 -0.213002 53 186 25 255
-0.445035 0.487297 -0.215202 53 186 25 255
-0.443764 0.487297 -0.217403 53 186 25 255
-0.442494 0.487297 -0.219602 53 186 25 255
-0.441224 0.487297 -0.221803 53 186 25 255
-0.439954 0.487297 -0.224003 53 186 25 255
-0.438683 0.487297 -0.226203 53 186 25 255
-0.437413 0.487297 -0.228403 53 186 25 255
-0.494575 0.489838 -0.129396 53 186 25 255
-0.493304 0.489838 -0.131597 53 186 25 255
-0.492034 0.489838 -0.133797 53 186 25 255
-0.490764 0.489838 -0.135997 53 186 25 255
-0.489494 0.489838 -0.138197 53 186 25 255
-0.488223 0.489838 -0.140398 53 186 25 255
-0.486953 0.489838 -0.142597 53 186 25 255
-0.485683 0.489838 -0.144798 53 186 25 255
-0.484413 0.489838 -0.146998 53 186 25 255
-0.483142 0.489838 -0.149198 53 186 25 255
-0.481872 0.489838 -0.151398 53 186 25 255
-0.480602 0.489838 -0.153598 53 186 25 255
-0.479332 0.489838 -0.155798 53 186 25 255
-0.474251 0.489838 -0.164599 53 186 25 255
-0.472980 0.489838 -0.166799 53 186 25 255
-0.471710 0.489838 -0.168999 53 186 25 255
-0.470440 0.489838 -0.171199 53 186 25 255
-0.469170 0.489838 -0.173399 53 186 25 255
-0.467899 0.489838 -0.175600 53 186 25 255
-0.466629 0.489838 -0.177799 53 186 25 255
-0.465359 0.489838 -0.180000 53 186 25 255
-0.464088 0.489838 -0.182201 53 186 25 255
-0.462818 0.489838 -0.184400 53 186 25 255
-0.461548 0.489838 -0.186601 53 186 25 255
-0.460278 0.489838 -0.188801 53 186 25 255
-0.459007 0.489838 -0.191001 53 186 25 255
-0.457737 0.489838 -0.193201 53 186 25 255
-0.457305 0.489715 -0.205038 53 186 25 255
-0.451386 0.489838 -0.204202 53 186 25 255
-0.450116 0.489838 -0.206402 53 186 25 255
-0.448845 0.489838 -0.208602 53 186 25 255
-0.447575 0.489838 -0.210802 53 186 25 255
-0.446305 0.489838 -0.213002 53 186 25 255
-0.445035 0.489838 -0.215202 53 186 25 255
-0.443764 0.489838 -0.217403 53 186 25 255
-0.442494 0.489838 -0.219602 53 186 25 255
-0.441224 0.489838 -0.221803 53 186 25 255
-0.439954 0.489838 -0.224003 53 186 25 255
-0.438683 0.489838 -0.226203 53 186 25 255
-0.437413 0.489838 -0.228403 53 186 25 255
-0.494575 0.492378 -0.129396 53 186 25 255
-0.493304 0.492378 -0.131597 53 186 25 255
-0.492034 0.492378 -0.133797 53 186 25 255
-0.490764 0.492378 -0.135997 53 186 25 255
-0.489494 0.492378 -0.138197 53 186 25 255
-0.488223 0.492378 -0.140398 53 186 25 255
-0.486953 0.492378 -0.142597 53 186 25 255
-0.485683 0.492378 -0.144798 53 186 25 255
-0.484413 0.492378 -0.146998 53 186 25 255
-0.483142 0.492378 -0.149198 53 186 25 255
-0.481872 0.492378 -0.151398 53 186 25 255
-0.480602 0.492378 -0.153598 53 186 25 255
-0.479332 0.492378 -0.155798 53 186 25 255
-0.474251 0.492378 -0.164599 53 186 25 255
-0.472980 0.492378 -0.166799 53 186 25 255
-0.471710 0.492378 -0.168999 53 186 25 255
-0.470440 0.492378 -0.171199 53 186 25 255
-0.469170 0.492378 -0.173399 53 186 25 255
-0.467899 0.492378 -0.175600 53 186 25 255
-0.466629 0.492378 -0.177799 53 186 25 255
-0.465359 0.492378 -0.180000 53 186 25 255
-0.464088 0.492378 -0.182201 53 186 25 255
-0.462818 0.492378 -0.184400 53 186 25 255
-0.461548 0.492378 -0.186601 53 186 25 255
-0.460278 0.492378 -0.188801 53 186 25 255
-0.459007 0.492378 -0.191001 53 186 25 255
-0.457737 0.492378 -0.193201 53 186 25 255
-0.456467 0.492378 -0.195401 53 186 25 255
-0.457305 0.492287 -0.205038 53 186 25 255
-0.451386 0.492378 -0.204202 53 186 25 255
-0.450116 0.492378 -0.206402 53 186 25 255
-0.448845 0.492378 -0.208602 53 186 25 255
-0.447575 0.492378 -0.210802 53 186 25 255
-0.446305 0.492378 -0.213002 53 186 25 255
-0.445035 0.492378 -0.215202 53 186 25 255
-0.443764 0.492378 -0.217403 53 186 25 255
-0.442494 0.492378 -0.219602 53 186 25 255
-0.441224 0.492378 -0.221803 53 186 25 255
-0.439954 0.492378 -0.224003 53 186 25 255
-0.438683 0.492378 -0.226203 53 186 25 255
-0.437413 0.492378 -0.228403 53 186 25 255
-0.494575 0.494919 -0.129396 53 186 25 255
-0.493304 0.494919 -0.131597 53 186 25 255
-0.492034 0.494919 -0.133797 53 186 25 255
-0.490764 0.494919 -0.135997 53 186 25 255
-0.489494 0.494919 -0.138197 53 186 25 255
-0.488223 0.494919 -0.140398 53 186 25 255
-0.486953 0.494919 -0.142597 53 186 25 255
-0.485683 0.494919 -0.144798 53 186 25 255
-0.484413 0.494919 -0.146998 53 186 25 255
-0.483142 0.494919 -0.149198 53 186 25 255
-0.481872 0.494919 -0.151398 53 186 25 255
-0.480602 0.494919 -0.153598 53 186 25 255
-0.479332 0.494919 -0.155798 53 186 25 255
-0.475521 0.494919 -0.162399 53 186 25 255
-0.474251 0.494919 -0.164599 53 186 25 255
-0.472980 0.494919 -0.166799 53 186 25 255
-0.471710 0.494919 -0.168999 53 186 25 255
-0.470440 0.494919 -0.171199 53 186 25 255
-0.469170 0.494919 -0.173399 53 186 25 255
-0.467899 0.494919 -0.175600 53 186 25 255
-0.466629 0.494919 -0.177799 53 186 25 255
-0.465359 0.494919 -0.180000 53 186 25 255
-0.464088 0.494919 -0.182201 53 186 25 255
-0.462818 0.494919 -0.184400 53 186 25 255
-0.461548 0.494919 -0.186601 53 186 25 255
-0.460278 0.494919 -0.188801 53 186 25 255
-0.459007 0.494919 -0.191001 53 186 25 255
-0.457737 0.494919 -0.193201 53 186 25 255
-0.456467 0.494919 -0.195401 53 186 25 255
-0.457305 0.494858 -0.205038 53 186 25 255
-0.451386 0.494919 -0.204202 53 186 25 255
-0.450116 0.494919 -0.206402 53 186 25 255
-0.448845 0.494919 -0.208602 53 186 25 255
-0.447575 0.494919 -0.210802 53 186 25 255
-0.446305 0.494919 -0.213002 53 186 25 255
-0.445035 0.494919 -0.215202 53 186 25 255
-0.443764 0.494919 -0.217403 53 186 25 255
-0.442494 0.494919 -0.219602 53 186 25 255
-0.441224 0.494919 -0.221803 53 186 25 255
-0.439954 0.494919 -0.224003 53 186 25 255
-0.438683 0.494919 -0.226203 53 186 25 255
-0.437413 0.494919 -0.228403 53 186 25 255
-0.494575 0.497459 -0.129396 53 186 25 255
-0.493304 0.497459 -0.131597 53 186 25 255
-0.492034 0.497459 -0.133797 53 186 25 255
-0.490764 0.497459 -0.135997 53 186 25 255
-0.489494 0.497459 -0.138197 53 186 25 255
-0.488223 0.497459 -0.140398 53 186 25 255
-0.486953 0.497459 -0.142597 53 186 25 255
-0.485683 0.497459 -0.144798 53 186 25 255
-0.484413 0.497459 -0.146998 53 186 25 255
-0.483142 0.497459 -0.149198 53 186 25 255
-0.481872 0.497459 -0.151398 53 186 25 255
-0.480602 0.497459 -0.153598 53 186 25 255
-0.479332 0.497459 -0.155798 53 186 25 255
-0.476791 0.497459 -0.160198 53 186 25 255
-0.475521 0.497459 -0.162399 53 186 25 255
-0.474251 0.497459 -0.164599 53 186 25 255
-0.472980 0.497459 -0.166799 53 186 25 255
-0.471710 0.497459 -0.168999 53 186 25 255
-0.470440 0.497459 -0.171199 53 186 25 255
-0.469170 0.497459 -0.173399 53 186 25 255
-0.467899 0.497459 -0.175600 53 186 25 255
-0.466629 0.497459 -0.177799 53 186 25 255
-0.465359 0.497459 -0.180000 53 186 25 255
-0.464088 0.497459 -0.182201 53 186 25 255
-0.462818 0.497459 -0.184400 53 186 25 255
-0.461548 0.497459 -0.186601 53 186 25 255
-0.460278 0.497459 -0.188801 53 186 25 255
-0.459007 0.497459 -0.191001 53 186 25 255
-0.457737 0.497459 -0.193201 53 186 25 255
-0.456467 0.497459 -0.195401 53 186 25 255
-0.455197 0.497459 -0.197601 53 186 25 255
-0.457305 0.497429 -0.205038 53 186 25 255
-0.451386 0.497459 -0.204202 53 186 25 255
-0.450116 0.497459 -0.206402 53 186 25 255
-0.448845 0.497459 -0.208602 53 186 25 255
-0.447575 0.497459 -0.210802 53 186 25 255
-0.446305 0.497459 -0.213002 53 186 25 255
-0.445035 0.497459 -0.215202 53 186 25 255
-0.443764 0.497459 -0.217403 53 186 25 255
-0.442494 0.497459 -0.219602 53 186 25 255
-0.441224 0.497459 -0.221803 53 186 25 255
-0.439954 0.497459 -0.224003 53 186 25 255
-0.438683 0.497459 -0.226203 53 186 25 255
-0.437413 0.497459 -0.228403 53 186 25 255
-0.494575 0.500000 -0.129396 53 186 25 255
-0.493304 0.500000 -0.131597 53 186 25 255
-0.492034 0.500000 -0.133797 53 186 25 255
-0.490764 0.500000 -0.135997 53 186 25 255
-0.489494 0.500000 -0.138197 53 186 25 255
-0.488223 0.500000 -0.140398 53 186 25 255
-0.486953 0.500000 -0.142597 53 186 25 255
-0.485683 0.500000 -0.144798 53 186 25 255
-0.484413 0.500000 -0.146998 53 186 25 255
-0.483142 0.500000 -0.149198 53 186 25 255
-0.481872 0.500000 -0.151398 53 186 25 255
-0.480602 0.500000 -0.153598 53 186 25 255
-0.479332 0.500000 -0.155798 53 186 25 255
-0.478061 0.500000 -0.157999 53 186 25 255
-0.476791 0.500000 -0.160198 53 186 25 255
-0.475521 0.500000 -0.162399 53 186 25 255
-0.474251 0.500000 -0.164599 53 186 25 255
-0.472980 0.500000 -0.166799 53 186 25 255
-0.471710 0.500000 -0.168999 53 186 25 255
-0.470440 0.500000 -0.171199 53 186 25 255
-0.469170 0.500000 -0.173399 53 186 25 255
-0.467899 0.500000 -0.175600 53 186 25 255
-0.466629 0.500000 -0.177799 53 186 25 255
-0.465359 0.500000 -0.180000 53 186 25 255
-0.464088 0.500000 -0.182201 53 186 25 255
-0.462818 0.500000 -0.184400 53 186 25 255
-0.461548 0.500000 -0.186601 53 186 25 255
-0.460278 0.500000 -0.188801 53 186 25 255
-0.459007 0.500000 -0.191001 53 186 25 255
-0.457737 0.500000 -0.193201 53 186 25 255
-0.456467 0.500000 -0.195401 53 186 25 255
-0.455197 0.500000 -0.197601 53 186 25 255
-0.453926 0.500000 -0.199802 53 186 25 255
-0.457305 0.500000 -0.205038 53 186 25 255
-0.451386 0.500000 -0.204202 53 186 25 255
-0.450116 0.500000 -0.206402 53 186 25 255
-0.448845 0.500000 -0.208602 53 186 25 255
-0.447575 0.500000 -0.210802 53 186 25 255
-0.446305 0.500000 -0.213002 53 186 25 255
-0.445035 0.500000 -0.215202 53 186 25 255
-0.443764 0.500000 -0.217403 53 186 25 255
-0.442494 0.500000 -0.219602 53 186 25 255
-0.441224 0.500000 -0.221803 53 186 25 255
-0.439954 0.500000 -0.224003 53 186 25 255
-0.438683 0.500000 -0.226203 53 186 25 255
-0.437413 0.500000 -0.228403 53 186 25 255
-0.494575 0.502541 -0.129396 53 186 25 255
-0.493304 0.502541 -0.131597 53 186 25 255
-0.492034 0.502541 -0.133797 53 186 25 255
-0.490764 0.502541 -0.135997 53 186 25 255
-0.489494 0.502541 -0.138197 53 186 25 255
-0.488223 0.502541 -0.140398 53 186 25 255
-0.486953 0.502541 -0.142597 53 186 25 255
-0.485683 0.502541 -0.144798 53 186 25 255
-0.484413 0.502541 -0.146998 53 186 25 255
-0.483142 0.502541 -0.149198 53 186 25 255
-0.481872 0.502541 -0.151398 53 186 25 255
-0.480602 0.502541 -0.153598 53 186 25 255
-0.479332 0.502541 -0.155798 53 186 25 255
-0.478061 0.502541 -0.157999 53 186 25 255
-0.476791 0.502541 -0.160198 53 186 25 255
-0.475521 0.502541 -0.162399 53 186 25 255
-0.474251 0.502541 -0.164599 53 186 25 255
-0.472980 0.502541 -0.166799 53 186 25 255
-0.471710 0.502541 -0.168999 53 186 25 255
-0.470440 0.502541 -0.171199 53 186 25 255
-0.469170 0.502541 -0.173399 53 186 25 255
-0.467899 0.502541 -0.175600 53 186 25 255
-0.466629 0.502541 -0.177799 53 186 25 255
-0.465359 0.502541 -0.180000 53 186 25 255
-0.464088 0.502541 -0.182201 53 186 25 255
-0.462818 0.502541 -0.184400 53 186 25 255
-0.461548 0.502541 -0.186601 53 186 25 255
-0.460278 0.502541 -0.188801 53 186 25 255
-0.459007 0.502541 -0.191001 53 186 25 255
-0.457737 0.502541 -0.193201 53 186 25 255
-0.456467 0.502541 -0.195401 53 186 25 255
-0.455197 0.502541 -0.197601 53 186 25 255
-0.453926 0.502541 -0.199802 53 186 25 255
-0.452656 0.502541 -0.202001 53 186 25 255
-0.451386 0.502541 -0.204202 53 186 25 255
-0.450116 0.502541 -0.206402 53 186 25 255
-0.448845 0.502541 -0.208602 53 186 25 255
-0.447575 0.502541 -0.210802 53 186 25 255
-0.446305 0.502541 -0.213002 53 186 25 255
-0.445035 0.502541 -0.215202 53 186 25 255
-0.443764 0.502541 -0.217403 53 186 25 255
-0.442494 0.502541 -0.219602 53 186 25 255
-0.441224 0.502541 -0.221803 53 186 25 255
-0.439954 0.502541 -0.224003 53 186 25 255
-0.438683 0.502541 -0.226203 53 186 25 255
-0.437413 0.502541 -0.228403 53 186 25 255
-0.494575 0.505081 -0.129396 53 186 25 255
-0.493304 0.505081 -0.131597 53 186 25 255
-0.492034 0.505081 -0.133797 53 186 25 255
-0.490764 0.505081 -0.135997 53 186 25 255
-0.489494 0.505081 -0.138197 53 186 25 255
-0.488223 0.505081 -0.140398 53 186 25 255
-0.486953 0.505081 -0.142597 53 186 25 255
-0.485683 0.505081 -0.144798 53 186 25 255
-0.484413 0.505081 -0.146998 53 186 25 255
-0.483142 0.505081 -0.149198 53 186 25 255
-0.481872 0.505081 -0.151398 53 186 25 255
-0.480602 0.505081 -0.153598 53 186 25 255
-0.479332 0.505081 -0.155798 53 186 25 255
-0.478061 0.505081 -0.157999 53 186 25 255
-0.476791 0.505081 -0.160198 53 186 25 255
-0.475521 0.505081 -0.162399 53 186 25 255
-0.474251 0.505081 -0.164599 53 186 25 255
-0.472980 0.505081 -0.166799 53 186 25 255
-0.471710 0.505081 -0.168999 53 186 25 255
-0.470440 0.505081 -0.171199 53 186 25 255
-0.469170 0.505081 -0.173399 53 186 25 255
-0.467899 0.505081 -0.175600 53 186 25 255
-0.466629 0.505081 -0.177799 53 186 25 255
-0.465359 0.505081 -0.180000 53 186 25 255
-0.464088 0.505081 -0.182201 53 186 25 255
-0.462818 0.505081 -0.184400 53 186 25 255
-0.461548 0.505081 -0.186601 53 186 25 255
-0.460278 0.505081 -0.188801 53 186 25 255
-0.459007 0.505081 -0.191001 53 186 25 255
-0.457737 0.505081 -0.193201 53 186 25 255
-0.456467 0.505081 -0.195401 53 186 25 255
-0.455197 0.505081 -0.197601 53 186 25 255
-0.453926 0.505081 -0.199802 53 186 25 255
-0.452656 0.505081 -0.202001 53 186 25 255
-0.451386 0.505081 -0.204202 53 186 25 255
-0.450116 0.505081 -0.206402 53 186 25 255
-0.448845 0.505081 -0.208602 53 186 25 255
-0.447575 0.505081 -0.210802 53 186 25 255
-0.446305 0.505081 -0.213002 53 186 25 255
-0.445035 0.505081 -0.215202 53 186 25 255
-0.443764 0.505081 -0.217403 53 186 25 255
-0.442494 0.505081 -0.219602 53 186 25 255
-0.441224 0.505081 -0.221803 53 186 25 255
-0.439954 0.505081 -0.224003 53 186 25 255
-0.438683 0.505081 -0.226203 53 186 25 255
-0.437413 0.505081 -0.228403 53 186 25 255
-0.494575 0.507622 -0.129396 53 186 25 255
-0.493304 0.507622 -0.131597 53 186 25 255
-0.492034 0.507622 -0.133797 53 186 25 255
-0.490764 0.507622 -0.135997 53 186 25 255
-0.489494 0.507622 -0.138197 53 186 25 255
-0.488223 0.507622 -0.140398 53 186 25 255
-0.486953 0.507622 -0.142597 53 186 25 255
-0.485683 0.507622 -0.144798 53 186 25 255
-0.484413 0.507622 -0.146998 53 186 25 255
-0.483142 0.507622 -0.149198 53 186 25 255
-0.481872 0.507622 -0.151398 53 186 25 255
-0.480602 0.507622 -0.153598 53 186 25 255
-0.479332 0.507622 -0.155798 53 186 25 255
-0.478061 0.507622 -0.157999 53 186 25 255
-0.476791 0.507622 -0.160198 53 186 25 255
-0.475521 0.507622 -0.162399 53 186 25 255
-0.474251 0.507622 -0.164599 53 186 25 255
-0.472980 0.507622 -0.166799 53 186 25 255
-0.471710 0.507622 -0.168999 53 186 25 255
-0.470440 0.507622 -0.171199 53 186 25 255
-0.469170 0.507622 -0.173399 53 186 25 255
-0.467899 0.507622 -0.175600 53 186 25 255
-0.466629 0.507622 -0.177799 53 186 25 255
-0.465359 0.507622 -0.180000 53 186 25 255
-0.464088 0.507622 -0.182201 53 186 25 255
-0.462818 0.507622 -0.184400 53 186 25 255
-0.461548 0.507622 -0.186601 53 186 25 255
-0.460278 0.507622 -0.188801 53 186 25 255
-0.459007 0.507622 -0.191001 53 186 25 255
-0.457737 0.507622 -0.193201 53 186 25 255
-0.456467 0.507622 -0.195401 53 186 25 255
-0.455197 0.507622 -0.197601 53 186 25 255
-0.453926 0.507622 -0.199802 53 186 25 255
-0.452656 0.507622 -0.202001 53 186 25 255
-0.451386 0.507622 -0.204202 53 186 25 255
-0.450116 0.507622 -0.206402 53 186 25 255
-0.448845 0.507622 -0.208602 53 186 25 255
-0.447575 0.507622 -0.210802 53 186 25 255
-0.446305 0.507622 -0.213002 53 186 25 255
-0.445035 0.507622 -0.215202 53 186 25 255
-0.443764 0.507622 -0.217403 53 186 25 255
-0.442494 0.507622 -0.219602 53 186 25 255
-0.441224 0.507622 -0.221803 53 186 25 255
-0.439954 0.507622 -0.224003 53 186 25 255
-0.438683 0.507622 -0.226203 53 186 25 255
-0.437413 0.507622 -0.228403 53 186 25 255
-0.494575 0.510162 -0.129396 53 186 25 255
-0.493304 0.510162 -0.131597 53 186 25 255
-0.492034 0.510162 -0.133797 53 186 25 255
-0.490764 0.510162 -0.135997 53 186 25 255
-0.489494 0.510162 -0.138197 53 186 25 255
-0.488223 0.510162 -0.140398 53 186 25 255
-0.486953 0.510162 -0.142597 53 186 25 255
-0.485683 0.510162 -0.144798 53 186 25 255
-0.484413 0.510162 -0.146998 53 186 25 255
-0.483142 0.510162 -0.149198 53 186 25 255
-0.481872 0.510162 -0.151398 53 186 25 255
-0.480602 0.510162 -0.153598 53 186 25 255
-0.479332 0.510162 -0.155798 53 186 25 255
-0.478061 0.510162 -0.157999 53 186 25 255
-0.476791 0.510162 -0.160198 53 186 25 255
-0.475521 0.510162 -0.162399 53 186 25 255
-0.474251 0.510162 -0.164599 53 186 25 255
-0.472980 0.510162 -0.166799 53 186 25 255
-0.471710 0.510162 -0.168999 53 186 25 255
-0.470440 0.510162 -0.171199 53 186 25 255
-0.469170 0.510162 -0.173399 53 186 25 255
-0.467899 0.510162 -0.175600 53 186 25 255
-0.466629 0.510162 -0.177799 53 186 25 255
-0.465359 0.510162 -0.180000 53 186 25 255
-0.464088 0.510162 -0.182201 53 186 25 255
-0.462818 0.510162 -0.184400 53 186 25 255
-0.461548 0.510162 -0.186601 53 186 25 255
-0.460278 0.510162 -0.188801 53 186 25 255
-0.459007 0.510162 -0.191001 53 186 25 255
-0.457737 0.510162 -0.193201 53 186 25 255
-0.456467 0.510162 -0.195401 53 186 25 255
-0.455197 0.510162 -0.197601 53 186 25 255
-0.453926 0.510162 -0.199802 53 186 25 255
-0.452656 0.510162 -0.202001 53 186 25 255
-0.451386 0.510162 -0.204202 53 186 25 255
-0.450116 0.510162 -0.206402 53 186 25 255
-0.448845 0.510162 -0.208602 53 186 25 255
-0.447575 0.510162 -0.210802 53 186 25 255
-0.446305 0.510162 -0.213002 53 186 25 255
-0.445035 0.510162 -0.215202 53 186 25 255
-0.443764 0.510162 -0.217403 53 186 25 255
-0.442494 0.510162 -0.219602 53 186 25 255
-0.441224 0.510162 -0.221803 53 186 25 255
-0.439954 0.510162 -0.224003 53 186 25 255
-0.438683 0.510162 -0.226203 53 186 25 255
-0.437413 0.510162 -0.228403 53 186 25 255
-0.494575 0.512703 -0.129396 53 186 25 255
-0.493304 0.512703 -0.131597 53 186 25 255
-0.492034 0.512703 -0.133797 53 186 25 255
-0.490764 0.512703 -0.135997 53 186 25 255
-0.489494 0.512703 -0.138197 53 186 25 255
-0.488223 0.512703 -0.140398 53 186 25 255
-0.486953 0.512703 -0.142597 53 186 25 255
-0.485683 0.512703 -0.144798 53 186 25 255
-0.484413 0.512703 -0.146998 53 186 25 255
-0.483142 0.512703 -0.149198 53 186 25 255
-0.481872 0.512703 -0.151398 53 186 25 255
-0.480602 0.512703 -0.153598 53 186 25 255
-0.479332 0.512703 -0.155798 53 186 25 255
-0.478061 0.512703 -0.157999 53 186 25 255
-0.476791 0.512703 -0.160198 53 186 25 255
-0.475521 0.512703 -0.162399 53 186 25 255
-0.474251 0.512703 -0.164599 53 186 25 255
-0.472980 0.512703 -0.166799 53 186 25 255
-0.471710 0.512703 -0.168999 53 186 25 255
-0.470440 0.512703 -0.171199 53 186 25 255
-0.469170 0.512703 -0.173399 53 186 25 255
-0.467899 0.512703 -0.175600 53 186 25 255
-0.466629 0.512703 -0.177799 53 186 25 255
-0.465359 0.512703 -0.180000 53 186 25 255
-0.464088 0.512703 -0.182201 53 186 25 255
-0.462818 0.512703 -0.184400 53 186 25 255
-0.461548 0.512703 -0.186601 53 186 25 255
-0.460278 0.512703 -0.188801 53 186 25 255
-0.459007 0.512703 -0.191001 53 186 25 255
-0.457737 0.512703 -0.193201 53 186 25 255
-0.456467 0.512703 -0.195401 53 186 25 255
-0.455197 0.512703 -0.197601 53 186 25 255
-0.453926 0.512703 -0.199802 53 186 25 255
-0.452656 0.512703 -0.202001 53 186 25 255
-0.451386 0.512703 -0.204202 53 186 25 255
-0.450116 0.512703 -0.206402 53 186 25 255
-0.448845 0.512703 -0.208602 53 186 25 255
-0.447575 0.512703 -0.210802 53 186 25 255
-0.446305 0.512703 -0.213002 53 186 25 255
-0.445035 0.512703 -0.215202 53 186 25 255
-0.443764 0.512703 -0.217403 53 186 25 255
-0.442494 0.512703 -0.219602 53 186 25 255
-0.441224 0.512703 -0.221803 53 186 25 255
-0.439954 0.512703 -0.224003 53 186 25 255
-0.438683 0.512703 -0.226203 53 186 25 255
-0.437413 0.512703 -0.228403 53 186 25 255
-0.494575 0.515243 -0.129396 53 186 25 255
-0.493304 0.515243 -0.131597 53 186 25 255
-0.492034 0.515243 -0.133797 53 186 25 255
-0.490764 0.515243 -0.135997 53 186 25 255
-0.489494 0.515243 -0.138197 53 186 25 255
-0.488223 0.515243 -0.140398 53 186 25 255
-0.486953 0.515243 -0.142597 53 186 25 255
-0.485683 0.515243 -0.144798 53 186 25 255
-0.484413 0.515243 -0.146998 53 186 25 255
-0.483142 0.515243 -0.149198 53 186 25 255
-0.481872 0.515243 -0.151398 53 186 25 255
-0.480602 0.515243 -0.153598 53 186 25 255
-0.479332 0.515243 -0.155798 53 186 25 255
-0.478061 0.515243 -0.157999 53 186 25 255
-0.476791 0.515243 -0.160198 53 186 25 255
-0.475521 0.515243 -0.162399 53 186 25 255
-0.474251 0.515243 -0.164599 53 186 25 255
-0.472980 0.515243 -0.166799 53 186 25 255
-0.471710 0.515243 -0.168999 53 186 25 255
-0.470440 0.515243 -0.171199 53 186 25 255
-0.469170 0.515243 -0.173399 53 186 25 255
-0.467899 0.515243 -0.175600 53 186 25 255
-0.464088 0.515243 -0.182201 53 186 25 255
-0.462818 0.515243 -0.184400 53 186 25 255
-0.461548 0.515243 -0.186601 53 186 25 255
-0.460278 0.515243 -0.188801 53 186 25 255
-0.459007 0.515243 -0.191001 53 186 25 255
-0.457737 0.515243 -0.193201 53 186 25 255
-0.456467 0.515243 -0.195401 53 186 25 255
-0.455197 0.515243 -0.197601 53 186 25 255
-0.453926 0.515243 -0.199802 53 186 25 255
-0.452656 0.515243 -0.202001 53 186 25 255
-0.451386 0.515243 -0.204202 53 186 25 255
-0.450116 0.515243 -0.206402 53 186 25 255
-0.448845 0.515243 -0.208602 53 186 25 255
-0.447575 0.515243 -0.210802 53 186 25 255
-0.446305 0.515243 -0.213002 53 186 25 255
-0.445035 0.515243 -0.215202 53 186 25 255
-0.443764 0.515243 -0.217403 53 186 25 255
-0.442494 0.515243 -0.219602 53 186 25 255
-0.441224 0.515243 -0.221803 53 186 25 255
-0.439954 0.515243 -0.224003 53 186 25 255
-0.438683 0.515243 -0.226203 53 186 25 255
-0.437413 0.515243 -0.228403 53 186 25 255
-0.494575 0.517784 -0.129396 53 186 25 255
-0.493304 0.517784 -0.131597 53 186 25 255
-0.492034 0.517784 -0.133797 53 186 25 255
-0.490764 0.517784 -0.135997 53 186 25 255
-0.489494 0.517784 -0.138197 53 186 25 255
-0.488223 0.517784 -0.140398 53 186 25 255
-0.486953 0.517784 -0.142597 53 186 25 255
-0.485683 0.517784 -0.144798 53 186 25 255
-0.484413 0.517784 -0.146998 53 186 25 255
-0.483142 0.517784 -0.149198 53 186 25 255
-0.481872 0.517784 -0.151398 53 186 25 255
-0.480602 0.517784 -0.153598 53 186 25 255
-0.479332 0.517784 -0.155798 53 186 25 255
-0.478061 0.517784 -0.157999 53 186 25 255
-0.476791 0.517784 -0.160198 53 186 25 255
-0.475521 0.517784 -0.162399 53 186 25 255
-0.474251 0.517784 -0.164599 53 186 25 255
-0.472980 0.517784 -0.166799 53 186 25 255
-0.471710 0.517784 -0.168999 53 186 25 255
-0.470440 0.517784 -0.171199 53 186 25 255
-0.469170 0.517784 -0.173399 53 186 25 255
-0.462818 0.517784 -0.184400 53 186 25 255
-0.461548 0.517784 -0.186601 53 186 25 255
-0.460278 0.517784 -0.188801 53 186 25 255
-0.459007 0.517784 -0.191001 53 186 25 255
-0.457737 0.517784 -0.193201 53 186 25 255
-0.456467 0.517784 -0.195401 53 186 25 255
-0.455197 0.517784 -0.197601 53 186 25 255
-0.453926 0.517784 -0.199802 53 186 25 255
-0.452656 0.517784 -0.202001 53 186 25 255
-0.451386 0.517784 -0.204202 53 186 25 255
-0.450116 0.517784 -0.206402 53 186 25 255
-0.448845 0.517784 -0.208602 53 186 25 255
-0.447575 0.517784 -0.210802 53 186 25 255
-0.446305 0.517784 -0.213002 53 186 25 255
-0.445035 0.517784 -0.215202 53 186 25 255
-0.443764 0.517784 -0.217403 53 186 25 255
-0.442494 0.517784 -0.219602 53 186 25 255
-0.441224 0.517784 -0.221803 53 186 25 255
-0.439954 0.517784 -0.224003 53 186 25 255
-0.438683 0.517784 -0.226203 53 186 25 255
-0.437413 0.517784 -0.228403 53 186 25 255
-0.499656 0.520324 -0.120596 53 186 25 255
-0.498385 0.520324 -0.122796 53 186 25 255
-0.497115 0.520324 -0.124996 53 186 25 255
-0.495845 0.520324 -0.127197 53 186 25 255
-0.494575 0.520324 -0.129396 53 186 25 255
-0.493304 0.520324 -0.131597 53 186 25 255
-0.492034 0.520324 -0.133797 53 186 25 255
-0.490764 0.520324 -0.135997 53 186 25 255
-0.489494 0.520324 -0.138197 53 186 25 255
-0.488223 0.520324 -0.140398 53 186 25 255
-0.486953 0.520324 -0.142597 53 186 25 255
-0.485683 0.520324 -0.144798 53 186 25 255
-0.484413 0.520324 -0.146998 53 186 25 255
-0.483142 0.520324 -0.149198 53 186 25 255
-0.481872 0.520324 -0.151398 53 186 25 255
-0.480602 0.520324 -0.153598 53 186 25 255
-0.479332 0.520324 -0.155798 53 186 25 255
-0.478061 0.520324 -0.157999 53 186 25 255
-0.476791 0.520324 -0.160198 53 186 25 255
-0.475521 0.520324 -0.162399 53 186 25 255
-0.474251 0.520324 -0.164599 53 186 25 255
-0.472980 0.520324 -0.166799 53 186 25 255
-0.471710 0.520324 -0.168999 53 186 25 255
-0.470440 0.520324 -0.171199 53 186 25 255
-0.469170 0.520324 -0.173399 53 186 25 255
-0.462818 0.520324 -0.184400 53 186 25 255
-0.461548 0.520324 -0.186601 53 186 25 255
-0.460278 0.520324 -0.188801 53 186 25 255
-0.459007 0.520324 -0.191001 53 186 25 255
-0.457737 0.520324 -0.193201 53 186 25 255
-0.456467 0.520324 -0.195401 53 186 25 255
-0.455197 0.520324 -0.197601 53 186 25 255
-0.453926 0.520324 -0.199802 53 186 25 255
-0.452656 0.520324 -0.202001 53 186 25 255
-0.451386 0.520324 -0.204202 53 186 25 255
-0.450116 0.520324 -0.206402 53 186 25 255
-0.448845 0.520324 -0.208602 53 186 25 255
-0.447575 0.520324 -0.210802 53 186 25 255
-0.446305 0.520324 -0.213002 53 186 25 255
-0.445035 0.520324 -0.215202 53 186 25 255
-0.443764 0.520324 -0.217403 53 186 25 255
-0.442494 0.520324 -0.219602 53 186 25 255
-0.441224 0.520324 -0.221803 53 186 25 255
-0.439954 0.520324 -0.224003 53 186 25 255
-0.438683 0.520324 -0.226203 53 186 25 255
-0.437413 0.520324 -0.228403 53 186 25 255
-0.436143 0.520324 -0.230604 53 186 25 255
-0.434873 0.520324 -0.232803 53 186 25 255
-0.433602 0.520324 -0.235004 53 186 25 255
-0.432332 0.520324 -0.237204 53 186 25 255
-0.499656 0.522865 -0.120596 53 186 25 255
-0.498385 0.522865 -0.122796 53 186 25 255
-0.497115 0.522865 -0.124996 53 186 25 255
-0.495845 0.522865 -0.127197 53 186 25 255
-0.494575 0.522865 -0.129396 53 186 25 255
-0.493304 0.522865 -0.131597 53 186 25 255
-0.492034 0.522865 -0.133797 53 186 25 255
-0.490764 0.522865 -0.135997 53 186 25 255
-0.489494 0.522865 -0.138197 53 186 25 255
-0.488223 0.522865 -0.140398 53 186 25 255
-0.486953 0.522865 -0.142597 53 186 25 255
-0.485683 0.522865 -0.144798 53 186 25 255
-0.484413 0.522865 -0.146998 53 186 25 255
-0.483142 0.522865 -0.149198 53 186 25 255
-0.481872 0.522865 -0.151398 53 186 25 255
-0.480602 0.522865 -0.153598 53 186 25 255
-0.479332 0.522865 -0.155798 53 186 25 255
-0.478061 0.522865 -0.157999 53 186 25 255
-0.476791 0.522865 -0.160198 53 186 25 255
-0.475521 0.522865 -0.162399 53 186 25 255
-0.474251 0.522865 -0.164599 53 186 25 255
-0.472980 0.522865 -0.166799 53 186 25 255
-0.471710 0.522865 -0.168999 53 186 25 255
-0.470440 0.522865 -0.171199 53 186 25 255
-0.461548 0.522865 -0.186601 53 186 25 255
-0.460278 0.522865 -0.188801 53 186 25 255
-0.459007 0.522865 -0.191001 53 186 25 255
-0.457737 0.522865 -0.193201 53 186 25 255
-0.456467 0.522865 -0.195401 53 186 25 255
-0.455197 0.522865 -0.197601 53 186 25 255
-0.453926 0.522865 -0.199802 53 186 25 255
-0.452656 0.522865 -0.202001 53 186 25 255
-0.451386 0.522865 -0.204202 53 186 25 255
-0.450116 0.522865 -0.206402 53 186 25 255
-0.448845 0.522865 -0.208602 53 186 25 255
-0.447575 0.522865 -0.210802 53 186 25 255
-0.446305 0.522865 -0.213002 53 186 25 255
-0.445035 0.522865 -0.215202 53 186 25 255
-0.443764 0.522865 -0.217403 53 186 25 255
-0.442494 0.522865 -0.219602 53 186 25 255
-0.441224 0.522865 -0.221803 53 186 25 255
-0.439954 0.522865 -0.224003 53 186 25 255
-0.438683 0.522865 -0.226203 53 186 25 255
-0.437413 0.522865 -0.228403 53 186 25 255
-0.436143 0.522865 -0.230604 53 186 25 255
-0.434873 0.522865 -0.232803 53 186 25 255
-0.433602 0.522865 -0.235004 53 186 25 255
-0.432332 0.522865 -0.237204 53 186 25 255
-0.499656 0.525405 -0.120596 53 186 25 255
-0.498385 0.525405 -0.122796 53 186 25 255
-0.497115 0.525405 -0.124996 53 186 25 255
-0.495845 0.525405 -0.127197 53 186 25 255
