ply
format ascii 1.0
element vertex 1180
property float x
property float y
property float z
property uchar red
property uchar green
property uchar blue
property uchar alpha
end_header
-0.010614 -0.019556 0.023881 162 129 3 1
-0.007901 -0.023159 0.023702 162 129 3 1
-0.005228 -0.026710 0.023525 162 129 3 1
-0.002595 -0.030207 0.023351 162 129 3 1
0.000000 -0.031047 0.023310 162 129 3 1
0.002609 -0.027563 0.023483 162 129 3 1
0.005257 -0.024028 0.023658 162 129 3 1
0.007946 -0.020439 0.023837 162 129 3 1
0.010675 -0.016796 0.024018 162 129 3 1
0.013445 -0.013096 0.024202 162 129 3 1
0.014912 -0.049999 0.022368 202 170 49 1
0.017397 -0.049999 0.022368 242 205 64 1
0.019882 -0.049999 0.022368 242 205 64 1
0.022368 -0.049999 0.022368 241 204 63 1
0.024853 -0.049999 0.022368 241 204 63 1
0.027338 -0.049999 0.022368 240 203 63 1
0.029823 -0.049999 0.022368 240 203 62 1
0.032309 -0.049999 0.022368 239 202 62 1
0.034794 -0.049999 0.022368 239 202 61 1
0.037279 -0.049999 0.022368 238 201 61 1
0.039765 -0.049999 0.022368 238 201 60 1
0.042250 -0.049999 0.022368 238 201 60 1
0.044735 -0.049999 0.022368 237 200 59 1
0.047220 -0.049999 0.022368 237 200 59 1
0.049706 -0.049999 0.022368 236 199 58 1
0.052191 -0.049999 0.022368 236 199 58 1
0.054676 -0.049999 0.022368 235 198 57 1
0.057162 -0.049999 0.022368 235 198 57 1
0.059647 -0.049999 0.022368 234 197 57 1
0.062132 -0.049999 0.022368 234 197 56 1
0.064617 -0.049999 0.022368 233 196 56 1
0.067103 -0.049999 0.022368 226 204 105 1
-0.069588 -0.050001 0.024853 226 204 105 1
-0.067102 -0.050001 0.024853 233 196 56 1
-0.064617 -0.050001 0.024853 234 197 56 1
-0.062132 -0.050001 0.024853 234 197 56 1
-0.059647 -0.050001 0.024853 235 198 57 1
-0.057161 -0.050001 0.024853 235 198 57 1
-0.054676 -0.050001 0.024853 236 199 58 1
-0.052191 -0.050001 0.024853 236 199 58 1
-0.049705 -0.050001 0.024853 237 200 59 1
-0.047220 -0.050001 0.024853 237 200 59 1
-0.044735 -0.050001 0.024853 238 201 60 1
-0.042250 -0.050001 0.024853 238 201 60 1
-0.039764 -0.050001 0.024853 238 201 61 1
-0.037279 -0.050001 0.024853 239 202 61 1
-0.034794 -0.050001 0.024853 239 202 62 1
-0.032309 -0.050001 0.024853 240 203 62 1
-0.029823 -0.050001 0.024853 240 203 62 1
-0.027338 -0.050001 0.024853 241 204 63 1
-0.024853 -0.050001 0.024853 241 204 63 1
-0.022367 -0.050001 0.024853 242 205 64 1
-0.019882 -0.050001 0.024853 242 205 64 1
-0.017397 -0.050001 0.024853 202 170 49 1
-0.016165 -0.012183 0.026941 162 129 3 1
-0.013368 -0.015897 0.026736 162 129 3 1
-0.010614 -0.019556 0.026534 162 129 3 1
-0.007901 -0.023159 0.026335 162 129 3 1
-0.005228 -0.026710 0.026139 162 129 3 1
-0.002595 -0.030207 0.025946 162 129 3 1
0.000000 -0.031047 0.025900 162 129 3 1
0.002609 -0.027563 0.026092 162 129 3 1
0.005257 -0.024028 0.026287 162 129 3 1
0.007946 -0.020439 0.026485 162 129 3 1
0.010675 -0.016796 0.026687 162 129 3 1
0.013445 -0.013096 0.026891 162 129 3 1
0.014912 -0.049999 0.024853 202 170 49 1
0.017397 -0.049999 0.024853 242 205 64 1
0.019882 -0.049999 0.024853 242 205 64 1
0.022368 -0.049999 0.024853 241 204 63 1
0.024853 -0.049999 0.024853 241 204 63 1
0.027338 -0.049999 0.024853 240 203 62 1
0.029823 -0.049999 0.024853 240 203 62 1
0.032309 -0.049999 0.024853 239 202 61 1
0.034794 -0.049999 0.024853 239 202 61 1
0.037279 -0.049999 0.024853 238 201 60 1
0.039765 -0.049999 0.024853 238 201 60 1
0.042250 -0.049999 0.024853 237 200 60 1
0.044735 -0.049999 0.024853 237 200 59 1
0.047220 -0.049999 0.024853 236 199 59 1
0.049706 -0.049999 0.024853 236 199 58 1
0.052191 -0.049999 0.024853 236 199 58 1
0.054676 -0.049999 0.024853 235 198 57 1
0.057162 -0.049999 0.024853 235 198 57 1
0.059647 -0.049999 0.024853 234 197 56 1
0.062132 -0.049999 0.024853 234 197 56 1
0.064617 -0.049999 0.024853 233 196 56 1
0.067103 -0.049999 0.024853 226 204 105 1
-0.069588 -0.050001 0.027338 226 205 105 1
-0.067102 -0.050001 0.027338 233 196 55 1
-0.064617 -0.050001 0.027338 234 197 56 1
-0.062132 -0.050001 0.027338 234 197 56 1
-0.059647 -0.050001 0.027338 235 198 57 1
-0.057161 -0.050001 0.027338 235 198 57 1
-0.054676 -0.050001 0.027338 236 199 58 1
-0.052191 -0.050001 0.027338 236 199 58 1
-0.049705 -0.050001 0.027338 236 199 59 1
-0.047220 -0.050001 0.027338 237 200 59 1
-0.044735 -0.050001 0.027338 237 200 60 1
-0.042250 -0.050001 0.027338 238 201 60 1
-0.039764 -0.050001 0.027338 238 201 60 1
-0.037279 -0.050001 0.027338 239 202 61 1
-0.034794 -0.050001 0.027338 239 202 61 1
-0.032309 -0.050001 0.027338 240 203 62 1
-0.029823 -0.050001 0.027338 240 203 62 1
-0.027338 -0.050001 0.027338 241 204 63 1
-0.024853 -0.050001 0.027338 241 204 63 1
-0.022367 -0.050001 0.027338 241 204 64 1
-0.019882 -0.050001 0.027338 242 205 64 1
-0.017397 -0.050001 0.027338 201 170 48 1
-0.016165 -0.012183 0.029636 162 129 3 1
-0.013368 -0.015897 0.029410 162 129 3 1
-0.010614 -0.019556 0.029188 162 129 3 1
-0.007901 -0.023159 0.028969 162 129 3 1
-0.005228 -0.026710 0.028753 162 129 3 1
-0.002595 -0.030207 0.028541 162 129 3 1
0.000000 -0.031047 0.028490 162 129 3 1
0.002609 -0.027563 0.028701 162 129 3 1
0.005257 -0.024028 0.028916 162 129 3 1
0.007946 -0.020439 0.029134 162 129 3 1
0.010675 -0.016796 0.029355 162 129 3 1
0.013445 -0.013096 0.029580 162 129 3 1
0.014912 -0.049999 0.027338 201 170 48 1
0.017397 -0.049999 0.027338 242 205 64 1
0.019882 -0.049999 0.027338 241 204 64 1
0.022368 -0.049999 0.027338 241 204 63 1
0.024853 -0.049999 0.027338 240 203 63 1
0.027338 -0.049999 0.027338 240 203 62 1
0.029823 -0.049999 0.027338 239 202 62 1
0.032309 -0.049999 0.027338 239 202 61 1
0.034794 -0.049999 0.027338 239 202 61 1
0.037279 -0.049999 0.027338 238 201 60 1
0.039765 -0.049999 0.027338 238 201 60 1
0.042250 -0.049999 0.027338 237 200 59 1
0.044735 -0.049999 0.027338 237 200 59 1
0.047220 -0.049999 0.027338 236 199 58 1
0.049706 -0.049999 0.027338 236 199 58 1
0.052191 -0.049999 0.027338 235 198 58 1
0.054676 -0.049999 0.027338 235 198 57 1
0.057162 -0.049999 0.027338 235 197 57 1
0.059647 -0.049999 0.027338 234 197 56 1
0.062132 -0.049999 0.027338 234 197 56 1
0.064617 -0.049999 0.027338 233 196 55 1
0.067103 -0.049999 0.027338 226 205 105 1
-0.069588 -0.050001 0.029823 226 205 105 1
-0.067102 -0.050001 0.029823 233 196 55 1
-0.064617 -0.050001 0.029823 234 196 56 1
-0.062132 -0.050001 0.029823 234 197 56 1
-0.059647 -0.050001 0.029823 234 197 57 1
-0.057161 -0.050001 0.029823 235 198 57 1
-0.054676 -0.050001 0.029823 235 198 58 1
-0.052191 -0.050001 0.029823 236 199 58 1
-0.049705 -0.050001 0.029823 236 199 58 1
-0.047220 -0.050001 0.029823 237 200 59 1
-0.044735 -0.050001 0.029823 237 200 59 1
-0.042250 -0.050001 0.029823 238 201 60 1
-0.039764 -0.050001 0.029823 238 201 60 1
-0.037279 -0.050001 0.029823 239 202 61 1
-0.034794 -0.050001 0.029823 239 202 61 1
-0.032309 -0.050001 0.029823 239 202 62 1
-0.029823 -0.050001 0.029823 240 203 62 1
-0.027338 -0.050001 0.029823 240 203 62 1
-0.024853 -0.050001 0.029823 241 204 63 1
-0.022367 -0.050001 0.029823 241 204 63 1
-0.019882 -0.050001 0.029823 242 205 64 1
-0.017397 -0.050001 0.029823 201 170 48 1
-0.016165 -0.012183 0.032330 162 129 3 1
-0.013368 -0.015897 0.032084 162 129 3 1
-0.010614 -0.019556 0.031841 162 129 3 1
-0.007901 -0.023159 0.031602 162 129 3 1
-0.005228 -0.026710 0.031367 162 129 3 1
-0.002595 -0.030207 0.031135 162 129 3 1
0.000000 -0.031047 0.031079 162 129 3 1
0.002609 -0.027563 0.031310 162 129 3 1
0.005257 -0.024028 0.031545 162 129 3 1
0.007946 -0.020439 0.031783 162 129 3 1
0.010675 -0.016796 0.032024 162 129 3 1
0.013445 -0.013096 0.032269 162 129 3 1
0.014912 -0.049999 0.029823 201 170 48 1
0.017397 -0.049999 0.029823 242 205 64 1
0.019882 -0.049999 0.029823 241 204 63 1
0.022368 -0.049999 0.029823 241 204 63 1
0.024853 -0.049999 0.029823 240 203 62 1
0.027338 -0.049999 0.029823 240 203 62 1
0.029823 -0.049999 0.029823 239 202 61 1
0.032309 -0.049999 0.029823 239 202 61 1
0.034794 -0.049999 0.029823 238 201 61 1
0.037279 -0.049999 0.029823 238 201 60 1
0.039765 -0.049999 0.029823 238 200 60 1
0.042250 -0.049999 0.029823 237 200 59 1
0.044735 -0.049999 0.029823 237 200 59 1
0.047220 -0.049999 0.029823 236 199 58 1
0.049706 -0.049999 0.029823 236 199 58 1
0.052191 -0.049999 0.029823 235 198 57 1
0.054676 -0.049999 0.029823 235 198 57 1
0.057162 -0.049999 0.029823 234 197 56 1
0.059647 -0.049999 0.029823 234 197 56 1
0.062132 -0.049999 0.029823 233 196 56 1
0.064617 -0.049999 0.029823 233 196 55 1
0.067103 -0.049999 0.029823 226 204 105 1
-0.069588 -0.050001 0.032309 226 204 105 1
-0.067102 -0.050001 0.032309 233 196 55 1
-0.064617 -0.050001 0.032309 233 196 56 1
-0.062132 -0.050001 0.032309 234 197 56 1
-0.059647 -0.050001 0.032309 234 197 56 1
-0.057161 -0.050001 0.032309 235 198 57 1
-0.054676 -0.050001 0.032309 235 198 57 1
-0.052191 -0.050001 0.032309 236 199 58 1
-0.049705 -0.050001 0.032309 236 199 58 1
-0.047220 -0.050001 0.032309 237 199 59 1
-0.044735 -0.050001 0.032309 237 200 59 1
-0.042250 -0.050001 0.032309 237 200 60 1
-0.039764 -0.050001 0.032309 238 201 60 1
-0.037279 -0.050001 0.032309 238 201 60 1
-0.034794 -0.050001 0.032309 239 202 61 1
-0.032309 -0.050001 0.032309 239 202 61 1
-0.029823 -0.050001 0.032309 240 203 62 1
-0.027338 -0.050001 0.032309 240 203 62 1
-0.024853 -0.050001 0.032309 241 204 63 1
-0.022367 -0.050001 0.032309 241 204 63 1
-0.019882 -0.050001 0.032309 241 204 64 1
-0.017397 -0.050001 0.032309 201 170 48 1
-0.016165 -0.012183 0.035024 162 129 3 1
-0.013368 -0.015897 0.034757 162 129 3 1
-0.010614 -0.019556 0.034494 162 129 3 1
-0.007901 -0.023159 0.034236 162 129 3 1
-0.005228 -0.026710 0.033981 162 129 3 1
-0.002595 -0.030207 0.033730 162 129 3 1
0.000000 -0.031047 0.033669 162 129 3 1
0.002609 -0.027563 0.033920 162 129 3 1
0.005257 -0.024028 0.034173 162 129 3 1
0.007946 -0.020439 0.034431 162 129 3 1
0.010675 -0.016796 0.034693 162 129 3 1
0.013445 -0.013096 0.034958 162 129 3 1
0.014912 -0.049999 0.032309 201 170 48 1
0.017397 -0.049999 0.032309 241 204 64 1
0.019882 -0.049999 0.032309 241 204 63 1
0.022368 -0.049999 0.032309 241 203 63 1
0.024853 -0.049999 0.032309 240 203 62 1
0.027338 -0.049999 0.032309 240 203 62 1
0.029823 -0.049999 0.032309 239 202 61 1
0.032309 -0.049999 0.032309 239 202 61 1
0.034794 -0.049999 0.032309 238 201 60 1
0.037279 -0.049999 0.032309 238 201 60 1
0.039765 -0.049999 0.032309 237 200 59 1
0.042250 -0.049999 0.032309 237 200 59 1
0.044735 -0.049999 0.032309 236 199 59 1
0.047220 -0.049999 0.032309 236 199 58 1
0.049706 -0.049999 0.032309 236 198 58 1
0.052191 -0.049999 0.032309 235 198 57 1
0.054676 -0.049999 0.032309 235 198 57 1
0.057162 -0.049999 0.032309 234 197 56 1
0.059647 -0.049999 0.032309 234 197 56 1
0.062132 -0.049999 0.032309 233 196 55 1
0.064617 -0.049999 0.032309 233 196 55 1
0.067103 -0.049999 0.032309 226 204 105 1
-0.069588 -0.050001 0.034794 226 204 104 1
-0.067102 -0.050001 0.034794 233 196 55 1
-0.064617 -0.050001 0.034794 233 196 55 1
-0.062132 -0.050001 0.034794 234 197 56 1
-0.059647 -0.050001 0.034794 234 197 56 1
-0.057161 -0.050001 0.034794 235 197 57 1
-0.054676 -0.050001 0.034794 235 198 57 1
-0.052191 -0.050001 0.034794 235 198 58 1
-0.049705 -0.050001 0.034794 236 199 58 1
-0.047220 -0.050001 0.034794 236 199 58 1
-0.044735 -0.050001 0.034794 237 200 59 1
-0.042250 -0.050001 0.034794 237 200 59 1
-0.039764 -0.050001 0.034794 238 201 60 1
-0.037279 -0.050001 0.034794 238 201 60 1
-0.034794 -0.050001 0.034794 239 202 61 1
-0.032309 -0.050001 0.034794 239 202 61 1
-0.029823 -0.050001 0.034794 239 202 62 1
-0.027338 -0.050001 0.034794 240 203 62 1
-0.024853 -0.050001 0.034794 240 203 63 1
-0.022367 -0.050001 0.034794 241 204 63 1
-0.019882 -0.050001 0.034794 241 204 63 1
-0.017397 -0.050001 0.034794 201 170 48 1
-0.016165 -0.012183 0.037718 173 154 66 1
-0.013368 -0.015897 0.037431 162 129 3 1
-0.010614 -0.019556 0.037148 162 129 3 1
-0.007901 -0.023159 0.036869 162 129 3 1
-0.005228 -0.026710 0.036595 162 129 3 1
-0.002595 -0.030207 0.036324 162 129 3 1
0.000000 -0.031047 0.036259 162 129 3 1
0.002609 -0.027563 0.036529 162 129 3 1
0.005257 -0.024028 0.036802 162 129 3 1
0.007946 -0.020439 0.037080 162 129 3 1
0.010675 -0.016796 0.037361 162 129 3 1
0.013445 -0.013096 0.037647 173 154 66 1
0.014912 -0.049999 0.034794 201 170 48 1
0.017397 -0.049999 0.034794 241 204 63 1
0.019882 -0.049999 0.034794 241 204 63 1
0.022368 -0.049999 0.034794 240 203 62 1
0.024853 -0.049999 0.034794 240 203 62 1
0.027338 -0.049999 0.034794 239 202 62 1
0.029823 -0.049999 0.034794 239 202 61 1
0.032309 -0.049999 0.034794 239 201 61 1
0.034794 -0.049999 0.034794 238 201 60 1
0.037279 -0.049999 0.034794 238 201 60 1
0.039765 -0.049999 0.034794 237 200 59 1
0.042250 -0.049999 0.034794 237 200 59 1
0.044735 -0.049999 0.034794 236 199 58 1
0.047220 -0.049999 0.034794 236 199 58 1
0.049706 -0.049999 0.034794 235 198 57 1
0.052191 -0.049999 0.034794 235 198 57 1
0.054676 -0.049999 0.034794 234 197 57 1
0.057162 -0.049999 0.034794 234 197 56 1
0.059647 -0.049999 0.034794 234 197 56 1
0.062132 -0.049999 0.034794 233 196 55 1
0.064617 -0.049999 0.034794 233 196 55 1
0.067103 -0.049999 0.034794 226 204 104 1
-0.069588 -0.050001 0.037279 226 204 104 1
-0.067102 -0.050001 0.037279 233 195 55 1
-0.064617 -0.050001 0.037279 233 196 55 1
-0.062132 -0.050001 0.037279 233 196 56 1
-0.059647 -0.050001 0.037279 234 197 56 1
-0.057161 -0.050001 0.037279 234 197 56 1
-0.054676 -0.050001 0.037279 235 198 57 1
-0.052191 -0.050001 0.037279 235 198 57 1
-0.049705 -0.050001 0.037279 236 199 58 1
-0.047220 -0.050001 0.037279 236 199 58 1
-0.044735 -0.050001 0.037279 237 200 59 1
-0.042250 -0.050001 0.037279 237 200 59 1
-0.039764 -0.050001 0.037279 237 200 60 1
-0.037279 -0.050001 0.037279 238 201 60 1
-0.034794 -0.050001 0.037279 238 201 61 1
-0.032309 -0.050001 0.037279 239 202 61 1
-0.029823 -0.050001 0.037279 239 202 61 1
-0.027338 -0.050001 0.037279 240 203 62 1
-0.024853 -0.050001 0.037279 240 203 62 1
-0.022367 -0.050001 0.037279 241 204 63 1
-0.019882 -0.050001 0.037279 241 204 63 1
-0.017397 -0.050001 0.037279 201 170 48 1
-0.007901 -0.023159 0.039503 196 205 192 1
-0.005228 -0.026710 0.039209 196 205 192 1
-0.002595 -0.030207 0.038919 184 180 129 1
0.000000 -0.031047 0.038849 184 180 129 1
0.002609 -0.027563 0.039138 196 205 192 1
0.005257 -0.024028 0.039431 196 205 192 1
0.014912 -0.049999 0.037279 201 169 48 1
0.017397 -0.049999 0.037279 241 204 63 1
0.019882 -0.049999 0.037279 241 204 63 1
0.022368 -0.049999 0.037279 240 203 62 1
0.024853 -0.049999 0.037279 240 203 62 1
0.027338 -0.049999 0.037279 239 202 61 1
0.029823 -0.049999 0.037279 239 202 61 1
0.032309 -0.049999 0.037279 238 201 60 1
0.034794 -0.049999 0.037279 238 201 60 1
0.037279 -0.049999 0.037279 237 200 60 1
0.039765 -0.049999 0.037279 237 200 59 1
0.042250 -0.049999 0.037279 237 200 59 1
0.044735 -0.049999 0.037279 236 199 58 1
0.047220 -0.049999 0.037279 236 199 58 1
0.049706 -0.049999 0.037279 235 198 57 1
0.052191 -0.049999 0.037279 235 198 57 1
0.054676 -0.049999 0.037279 234 197 56 1
0.057162 -0.049999 0.037279 234 197 56 1
0.059647 -0.049999 0.037279 233 196 56 1
0.062132 -0.049999 0.037279 233 196 55 1
0.064617 -0.049999 0.037279 232 195 55 1
0.067103 -0.049999 0.037279 226 204 104 1
-0.069588 0.050001 0.039764 226 204 104 1
-0.067102 0.050001 0.039764 233 196 55 1
-0.064617 0.050001 0.039764 233 196 55 1
-0.062132 0.050001 0.039764 234 197 56 1
-0.059647 0.050001 0.039764 234 197 56 1
-0.057161 0.050001 0.039764 235 198 57 1
-0.054676 0.050001 0.039764 235 198 57 1
-0.052191 0.050001 0.039764 236 199 58 1
-0.049705 0.050001 0.039764 236 199 58 1
-0.047220 0.050001 0.039764 237 200 59 1
-0.044735 0.050001 0.039764 237 200 59 1
-0.042250 0.050001 0.039764 238 201 60 1
-0.039764 0.050001 0.039764 238 201 60 1
-0.037279 0.050001 0.039764 239 202 61 1
-0.034794 0.050001 0.039764 239 202 61 1
-0.032309 0.050001 0.039764 240 203 62 1
-0.029823 0.050001 0.039764 240 203 62 1
-0.027396 0.049040 0.039849 161 128 3 1
-0.025084 0.045818 0.040134 161 128 3 1
0.022615 0.045020 0.040205 161 128 3 1
0.024949 0.048253 0.039919 161 128 3 1
0.027338 0.050001 0.039764 240 203 62 1
0.029823 0.050001 0.039764 240 203 62 1
0.032309 0.050001 0.039764 239 202 61 1
0.034794 0.050001 0.039764 239 202 61 1
0.037279 0.050001 0.039764 238 201 60 1
0.039764 0.050001 0.039764 238 201 60 1
0.042250 0.050001 0.039764 237 200 59 1
0.044735 0.050001 0.039764 237 200 59 1
0.047220 0.050001 0.039764 236 199 58 1
0.049705 0.050001 0.039764 236 199 58 1
0.052191 0.050001 0.039764 235 198 57 1
0.054676 0.050001 0.039764 235 198 57 1
0.057161 0.050001 0.039764 234 197 56 1
0.059647 0.050001 0.039764 234 197 56 1
0.062132 0.050001 0.039764 233 196 55 1
0.064617 0.050001 0.039764 233 196 55 1
0.067102 0.050001 0.039764 226 204 104 1
-0.069588 0.050001 0.037279 226 204 104 1
-0.067102 0.050001 0.037279 233 196 55 1
-0.064617 0.050001 0.037279 233 196 55 1
-0.062132 0.050001 0.037279 234 197 56 1
-0.059647 0.050001 0.037279 234 197 56 1
-0.057161 0.050001 0.037279 235 198 57 1
-0.054676 0.050001 0.037279 235 198 57 1
-0.052191 0.050001 0.037279 236 199 58 1
-0.049705 0.050001 0.037279 236 199 58 1
-0.047220 0.050001 0.037279 237 200 59 1
-0.044735 0.050001 0.037279 237 200 59 1
-0.042250 0.050001 0.037279 238 201 60 1
-0.039764 0.050001 0.037279 238 201 60 1
-0.037279 0.050001 0.037279 239 202 61 1
-0.034794 0.050001 0.037279 239 202 61 1
-0.032309 0.050001 0.037279 240 203 62 1
-0.029823 0.050001 0.037279 240 203 62 1
-0.027396 0.049040 0.037359 161 128 3 1
-0.025084 0.045818 0.037626 161 128 3 1
-0.022738 0.042549 0.037896 161 128 3 1
-0.020358 0.039233 0.038171 161 128 3 1
-0.017943 0.035868 0.038450 161 128 3 1
-0.015493 0.032454 0.038733 161 128 3 1
-0.013007 0.028989 0.039020 161 128 3 1
-0.010483 0.025473 0.039311 161 128 3 1
-0.007921 0.021903 0.039607 161 128 3 1
-0.005321 0.018280 0.039907 161 128 3 1
-0.002681 0.014601 0.040212 161 128 3 1
0.000000 0.013701 0.040286 161 128 3 1
0.002665 0.017392 0.039981 161 128 3 1
0.005291 0.021028 0.039679 161 128 3 1
0.007877 0.024609 0.039383 161 128 3 1
0.010424 0.028137 0.039090 161 128 3 1
0.012934 0.031613 0.038802 161 128 3 1
0.015407 0.035038 0.038519 161 128 3 1
0.017845 0.038414 0.038239 161 128 3 1
0.020247 0.041741 0.037963 161 128 3 1
0.022615 0.045020 0.037692 161 128 3 1
0.024949 0.048253 0.037424 161 128 3 1
0.027338 0.050001 0.037279 240 203 63 1
0.029823 0.050001 0.037279 240 203 62 1
0.032309 0.050001 0.037279 239 202 62 1
0.034794 0.050001 0.037279 239 202 61 1
0.037279 0.050001 0.037279 238 201 60 1
0.039764 0.050001 0.037279 238 201 60 1
0.042250 0.050001 0.037279 237 200 59 1
0.044735 0.050001 0.037279 237 200 59 1
0.047220 0.050001 0.037279 236 199 58 1
0.049705 0.050001 0.037279 236 199 58 1
0.052191 0.050001 0.037279 235 198 57 1
0.054676 0.050001 0.037279 235 198 57 1
0.057161 0.050001 0.037279 234 197 56 1
0.059647 0.050001 0.037279 234 197 56 1
0.062132 0.050001 0.037279 233 196 55 1
0.064617 0.050001 0.037279 233 196 55 1
0.067102 0.050001 0.037279 226 204 104 1
-0.069588 0.050001 0.034794 226 204 105 1
-0.067102 0.050001 0.034794 233 196 55 1
-0.064617 0.050001 0.034794 233 196 56 1
-0.062132 0.050001 0.034794 234 197 56 1
-0.059647 0.050001 0.034794 234 197 57 1
-0.057161 0.050001 0.034794 235 198 57 1
-0.054676 0.050001 0.034794 235 198 58 1
-0.052191 0.050001 0.034794 236 199 58 1
-0.049705 0.050001 0.034794 236 199 59 1
-0.047220 0.050001 0.034794 237 200 59 1
-0.044735 0.050001 0.034794 237 200 60 1
-0.042250 0.050001 0.034794 238 201 60 1
-0.039764 0.050001 0.034794 238 201 61 1
-0.037279 0.050001 0.034794 239 202 61 1
-0.034794 0.050001 0.034794 239 202 62 1
-0.032309 0.050001 0.034794 240 203 62 1
-0.029823 0.050001 0.034794 241 204 63 1
-0.027396 0.049040 0.034868 161 128 3 1
-0.025084 0.045818 0.035117 161 128 3 1
-0.022738 0.042549 0.035370 161 128 3 1
-0.020358 0.039233 0.035626 161 128 3 1
-0.017943 0.035868 0.035887 161 128 3 1
-0.015493 0.032454 0.036151 161 128 3 1
-0.013007 0.028989 0.036418 161 128 3 1
-0.010483 0.025473 0.036690 161 128 3 1
-0.007921 0.021903 0.036966 161 128 3 1
-0.005321 0.018280 0.037247 161 128 3 1
-0.002681 0.014601 0.037531 161 128 3 1
0.000000 0.013701 0.037601 161 128 3 1
0.002665 0.017392 0.037315 161 128 3 1
0.005291 0.021028 0.037034 161 128 3 1
0.007877 0.024609 0.036757 161 128 3 1
0.010424 0.028137 0.036484 161 128 3 1
0.012934 0.031613 0.036216 161 128 3 1
0.015407 0.035038 0.035951 161 128 3 1
0.017845 0.038414 0.035690 161 128 3 1
0.020247 0.041741 0.035433 161 128 3 1
0.022615 0.045020 0.035179 161 128 3 1
0.024949 0.048253 0.034929 161 128 3 1
0.027338 0.050001 0.034794 241 204 63 1
0.029823 0.050001 0.034794 240 203 62 1
0.032309 0.050001 0.034794 240 203 62 1
0.034794 0.050001 0.034794 239 202 61 1
0.037279 0.050001 0.034794 239 202 61 1
0.039764 0.050001 0.034794 238 201 60 1
0.042250 0.050001 0.034794 238 201 60 1
0.044735 0.050001 0.034794 237 200 59 1
0.047220 0.050001 0.034794 237 199 59 1
0.049705 0.050001 0.034794 236 199 58 1
0.052191 0.050001 0.034794 236 198 58 1
0.054676 0.050001 0.034794 235 198 57 1
0.057161 0.050001 0.034794 234 197 57 1
0.059647 0.050001 0.034794 234 197 56 1
0.062132 0.050001 0.034794 233 196 56 1
0.064617 0.050001 0.034794 233 196 55 1
0.067102 0.050001 0.034794 226 204 105 1
-0.069588 0.050001 0.032309 226 205 105 1
-0.067102 0.050001 0.032309 233 196 55 1
-0.064617 0.050001 0.032309 234 197 56 1
-0.062132 0.050001 0.032309 234 197 56 1
-0.059647 0.050001 0.032309 235 198 57 1
-0.057161 0.050001 0.032309 235 198 57 1
-0.054676 0.050001 0.032309 236 199 58 1
-0.052191 0.050001 0.032309 236 199 58 1
-0.049705 0.050001 0.032309 237 200 59 1
-0.047220 0.050001 0.032309 237 200 59 1
-0.044735 0.050001 0.032309 238 201 60 1
-0.042250 0.050001 0.032309 238 201 60 1
-0.039764 0.050001 0.032309 239 202 61 1
-0.037279 0.050001 0.032309 239 202 61 1
-0.034794 0.050001 0.032309 240 203 62 1
-0.032309 0.050001 0.032309 240 203 62 1
-0.029823 0.050001 0.032309 241 204 63 1
-0.027396 0.049040 0.032378 161 128 3 1
-0.025084 0.045818 0.032609 161 128 3 1
-0.022738 0.042549 0.032844 161 128 3 1
-0.020358 0.039233 0.033082 161 128 3 1
-0.017943 0.035868 0.033323 161 128 3 1
-0.015493 0.032454 0.033568 161 128 3 1
-0.013007 0.028989 0.033817 161 128 3 1
-0.010483 0.025473 0.034070 161 128 3 1
-0.007921 0.021903 0.034326 161 128 3 1
-0.005321 0.018280 0.034586 161 128 3 1
-0.002681 0.014601 0.034850 161 128 3 1
0.000000 0.013701 0.034915 161 128 3 1
0.002665 0.017392 0.034650 161 128 3 1
0.005291 0.021028 0.034389 161 128 3 1
0.007877 0.024609 0.034132 161 128 3 1
0.010424 0.028137 0.033878 161 128 3 1
0.012934 0.031613 0.033629 161 128 3 1
0.015407 0.035038 0.033383 161 128 3 1
0.017845 0.038414 0.033140 161 128 3 1
0.020247 0.041741 0.032902 161 128 3 1
0.022615 0.045020 0.032666 161 128 3 1
0.024949 0.048253 0.032434 161 128 3 1
0.027338 0.050001 0.032309 241 204 63 1
0.029823 0.050001 0.032309 240 203 62 1
0.032309 0.050001 0.032309 240 203 62 1
0.034794 0.050001 0.032309 239 202 61 1
0.037279 0.050001 0.032309 239 202 61 1
0.039764 0.050001 0.032309 238 201 60 1
0.042250 0.050001 0.032309 238 201 60 1
0.044735 0.050001 0.032309 237 200 59 1
0.047220 0.050001 0.032309 237 200 59 1
0.049705 0.050001 0.032309 236 199 58 1
0.052191 0.050001 0.032309 236 199 58 1
0.054676 0.050001 0.032309 235 198 57 1
0.057161 0.050001 0.032309 235 198 57 1
0.059647 0.050001 0.032309 234 197 56 1
0.062132 0.050001 0.032309 234 197 56 1
0.064617 0.050001 0.032309 233 196 55 1
0.067102 0.050001 0.032309 226 205 105 1
-0.069588 0.050001 0.029823 226 205 105 1
-0.067102 0.050001 0.029823 233 196 55 1
-0.064617 0.050001 0.029823 234 197 56 1
-0.062132 0.050001 0.029823 234 197 56 1
-0.059647 0.050001 0.029823 235 198 57 1
-0.057161 0.050001 0.029823 235 198 57 1
-0.054676 0.050001 0.029823 236 199 58 1
-0.052191 0.050001 0.029823 236 199 58 1
-0.049705 0.050001 0.029823 237 200 59 1
-0.047220 0.050001 0.029823 237 200 59 1
-0.044735 0.050001 0.029823 238 201 60 1
-0.042250 0.050001 0.029823 238 201 60 1
-0.039764 0.050001 0.029823 239 202 61 1
-0.037279 0.050001 0.029823 239 202 62 1
-0.034794 0.050001 0.029823 240 203 62 1
-0.032309 0.050001 0.029823 240 203 63 1
-0.029823 0.050001 0.029823 241 204 63 1
-0.027396 0.049040 0.029887 161 128 3 1
-0.025084 0.045818 0.030101 161 128 3 1
-0.022738 0.042549 0.030317 161 128 3 1
-0.020358 0.039233 0.030537 161 128 3 1
-0.017943 0.035868 0.030760 161 128 3 1
-0.015493 0.032454 0.030986 161 128 3 1
-0.013007 0.028989 0.031216 161 128 3 1
-0.010483 0.025473 0.031449 161 128 3 1
-0.007921 0.021903 0.031685 161 128 3 1
-0.005321 0.018280 0.031926 161 128 3 1
-0.002681 0.014601 0.032169 161 128 3 1
0.000000 0.013701 0.032229 161 128 3 1
0.002665 0.017392 0.031984 161 128 3 1
0.005291 0.021028 0.031744 161 128 3 1
0.007877 0.024609 0.031506 161 128 3 1
0.010424 0.028137 0.031272 161 128 3 1
0.012934 0.031613 0.031042 161 128 3 1
0.015407 0.035038 0.030815 161 128 3 1
0.017845 0.038414 0.030591 161 128 3 1
0.020247 0.041741 0.030371 161 128 3 1
0.022615 0.045020 0.030153 161 128 3 1
0.024949 0.048253 0.029939 161 128 3 1
0.027338 0.050001 0.029823 241 204 63 1
0.029823 0.050001 0.029823 240 203 63 1
0.032309 0.050001 0.029823 240 203 62 1
0.034794 0.050001 0.029823 239 202 62 1
0.037279 0.050001 0.029823 239 202 61 1
0.039764 0.050001 0.029823 238 201 61 1
0.042250 0.050001 0.029823 238 201 60 1
0.044735 0.050001 0.029823 237 200 60 1
0.047220 0.050001 0.029823 237 200 59 1
0.049705 0.050001 0.029823 236 199 59 1
0.052191 0.050001 0.029823 236 199 58 1
0.054676 0.050001 0.029823 235 198 58 1
0.057161 0.050001 0.029823 235 198 57 1
0.059647 0.050001 0.029823 234 197 56 1
0.062132 0.050001 0.029823 234 197 56 1
0.064617 0.050001 0.029823 233 196 55 1
0.067102 0.050001 0.029823 226 205 105 1
-0.069588 0.050001 0.027338 226 204 105 1
-0.067102 0.050001 0.027338 233 196 56 1
-0.064617 0.050001 0.027338 234 197 56 1
-0.062132 0.050001 0.027338 234 197 57 1
-0.059647 0.050001 0.027338 235 198 57 1
-0.057161 0.050001 0.027338 235 198 58 1
-0.054676 0.050001 0.027338 236 199 58 1
-0.052191 0.050001 0.027338 236 199 59 1
-0.049705 0.050001 0.027338 237 200 59 1
-0.047220 0.050001 0.027338 237 200 60 1
-0.044735 0.050001 0.027338 238 201 60 1
-0.042250 0.050001 0.027338 238 201 61 1
-0.039764 0.050001 0.027338 239 202 61 1
-0.037279 0.050001 0.027338 240 203 62 1
-0.034794 0.050001 0.027338 240 203 62 1
-0.032309 0.050001 0.027338 241 204 63 1
-0.029823 0.050001 0.027338 241 204 63 1
-0.027396 0.049040 0.027396 161 128 3 1
-0.025084 0.045818 0.027592 161 128 3 1
-0.022738 0.042549 0.027791 161 128 3 1
-0.020358 0.039233 0.027992 161 128 3 1
-0.017943 0.035868 0.028197 161 128 3 1
-0.015493 0.032454 0.028404 161 128 3 1
-0.013007 0.028989 0.028615 161 128 3 1
-0.010483 0.025473 0.028828 161 128 3 1
-0.007921 0.021903 0.029045 161 128 3 1
-0.005321 0.018280 0.029265 161 128 3 1
-0.002681 0.014601 0.029489 161 128 3 1
0.000000 0.013701 0.029543 161 128 3 1
0.002665 0.017392 0.029319 161 128 3 1
0.005291 0.021028 0.029098 161 128 3 1
0.007877 0.024609 0.028881 161 128 3 1
0.010424 0.028137 0.028666 161 128 3 1
0.012934 0.031613 0.028455 161 128 3 1
0.015407 0.035038 0.028247 161 128 3 1
0.017845 0.038414 0.028042 161 128 3 1
0.020247 0.041741 0.027840 161 128 3 1
0.022615 0.045020 0.027641 161 128 3 1
0.024949 0.048253 0.027444 161 128 3 1
0.027338 0.050001 0.027338 241 204 63 1
0.029823 0.050001 0.027338 241 204 63 1
0.032309 0.050001 0.027338 240 203 62 1
0.034794 0.050001 0.027338 240 203 62 1
0.037279 0.050001 0.027338 239 202 61 1
0.039764 0.050001 0.027338 239 202 61 1
0.042250 0.050001 0.027338 238 201 60 1
0.044735 0.050001 0.027338 238 201 60 1
0.047220 0.050001 0.027338 237 200 59 1
0.049705 0.050001 0.027338 237 200 59 1
0.052191 0.050001 0.027338 236 199 58 1
0.054676 0.050001 0.027338 236 199 58 1
0.057161 0.050001 0.027338 235 198 57 1
0.059647 0.050001 0.027338 235 197 57 1
0.062132 0.050001 0.027338 234 197 56 1
0.064617 0.050001 0.027338 233 196 56 1
0.067102 0.050001 0.027338 226 204 105 1
-0.069588 0.050001 0.024853 226 204 105 1
-0.067102 0.050001 0.024853 234 197 56 1
-0.064617 0.050001 0.024853 234 197 56 1
-0.062132 0.050001 0.024853 235 198 57 1
-0.059647 0.050001 0.024853 235 198 57 1
-0.057161 0.050001 0.024853 236 199 58 1
-0.054676 0.050001 0.024853 236 199 58 1
-0.052191 0.050001 0.024853 237 200 59 1
-0.049705 0.050001 0.024853 237 200 59 1
-0.047220 0.050001 0.024853 238 201 60 1
-0.044735 0.050001 0.024853 238 201 60 1
-0.042250 0.050001 0.024853 239 202 61 1
-0.039764 0.050001 0.024853 239 202 61 1
-0.037279 0.050001 0.024853 240 203 62 1
-0.034794 0.050001 0.024853 240 203 62 1
-0.032309 0.050001 0.024853 241 204 63 1
-0.029823 0.050001 0.024853 241 204 64 1
-0.027396 0.049040 0.024906 160 128 3 1
-0.025084 0.045818 0.025084 161 128 3 1
-0.022738 0.042549 0.025264 161 128 3 1
-0.020358 0.039233 0.025447 161 128 3 1
-0.017943 0.035868 0.025633 161 128 3 1
-0.015493 0.032454 0.025822 161 128 3 1
-0.013007 0.028989 0.026013 161 128 3 1
-0.010483 0.025473 0.026207 161 128 3 1
-0.007921 0.021903 0.026405 161 128 3 1
-0.005321 0.018280 0.026605 161 128 3 1
-0.002681 0.014601 0.026808 161 128 3 1
0.000000 0.013701 0.026858 161 128 3 1
0.002665 0.017392 0.026654 161 128 3 1
0.005291 0.021028 0.026453 161 128 3 1
0.007877 0.024609 0.026255 161 128 3 1
0.010424 0.028137 0.026060 161 128 3 1
0.012934 0.031613 0.025868 161 128 3 1
0.015407 0.035038 0.025679 161 128 3 1
0.017845 0.038414 0.025493 161 128 3 1
0.020247 0.041741 0.025309 161 128 3 1
0.022615 0.045020 0.025128 161 128 3 1
0.024949 0.048253 0.024949 161 128 3 1
0.027338 0.050001 0.024853 241 204 64 1
0.029823 0.050001 0.024853 241 204 63 1
0.032309 0.050001 0.024853 240 203 63 1
0.034794 0.050001 0.024853 240 203 62 1
0.037279 0.050001 0.024853 239 202 62 1
0.039764 0.050001 0.024853 239 202 61 1
0.042250 0.050001 0.024853 238 201 61 1
0.044735 0.050001 0.024853 238 201 60 1
0.047220 0.050001 0.024853 237 200 59 1
0.049705 0.050001 0.024853 237 200 59 1
0.052191 0.050001 0.024853 236 199 58 1
0.054676 0.050001 0.024853 236 199 58 1
0.057161 0.050001 0.024853 235 198 57 1
0.059647 0.050001 0.024853 235 198 57 1
0.062132 0.050001 0.024853 234 197 56 1
0.064617 0.050001 0.024853 234 197 56 1
0.067102 0.050001 0.024853 226 204 105 1
-0.069588 0.050001 0.022367 226 204 105 1
-0.067102 0.050001 0.022367 234 197 56 1
-0.064617 0.050001 0.022367 234 197 56 1
-0.062132 0.050001 0.022367 235 198 57 1
-0.059647 0.050001 0.022367 235 198 57 1
-0.057161 0.050001 0.022367 236 199 58 1
-0.054676 0.050001 0.022367 236 199 58 1
-0.052191 0.050001 0.022367 237 200 59 1
-0.049705 0.050001 0.022367 237 200 59 1
-0.047220 0.050001 0.022367 238 201 60 1
-0.044735 0.050001 0.022367 238 201 61 1
-0.042250 0.050001 0.022367 239 202 61 1
-0.039764 0.050001 0.022367 239 202 62 1
-0.037279 0.050001 0.022367 240 203 62 1
-0.034794 0.050001 0.022367 240 203 63 1
-0.032309 0.050001 0.022367 241 204 63 1
-0.029823 0.050001 0.022367 242 205 64 1
-0.027396 0.049040 0.022415 160 128 3 1
-0.025084 0.045818 0.022575 160 128 3 1
-0.022738 0.042549 0.022738 160 128 3 1
-0.020358 0.039233 0.022903 160 128 3 1
-0.017943 0.035868 0.023070 160 128 3 1
-0.015493 0.032454 0.023240 160 128 3 1
-0.013007 0.028989 0.023412 160 128 3 1
-0.010483 0.025473 0.023587 160 128 3 1
-0.007921 0.021903 0.023764 160 128 3 1
-0.005321 0.018280 0.023944 160 128 3 1
-0.002681 0.014601 0.024127 160 128 3 1
0.000000 0.013701 0.024172 161 128 3 1
0.002665 0.017392 0.023988 161 128 3 1
0.005291 0.021028 0.023808 160 128 3 1
0.007877 0.024609 0.023630 160 128 3 1
0.010424 0.028137 0.023454 160 128 3 1
0.012934 0.031613 0.023281 160 128 3 1
0.015407 0.035038 0.023111 160 128 3 1
0.017845 0.038414 0.022943 160 128 3 1
0.020247 0.041741 0.022778 160 128 3 1
0.022615 0.045020 0.022615 160 128 3 1
0.024949 0.048253 0.022454 160 128 3 1
0.027338 0.050001 0.022367 242 205 64 1
0.029823 0.050001 0.022367 241 204 63 1
0.032309 0.050001 0.022367 241 204 63 1
0.034794 0.050001 0.022367 240 203 62 1
0.037279 0.050001 0.022367 240 203 62 1
0.039764 0.050001 0.022367 239 202 61 1
0.042250 0.050001 0.022367 239 202 61 1
0.044735 0.050001 0.022367 238 201 60 1
0.047220 0.050001 0.022367 238 200 60 1
0.049705 0.050001 0.022367 237 200 59 1
0.052191 0.050001 0.022367 236 199 59 1
0.054676 0.050001 0.022367 236 199 58 1
0.057161 0.050001 0.022367 235 198 58 1
0.059647 0.050001 0.022367 235 198 57 1
0.062132 0.050001 0.022367 234 197 56 1
0.064617 0.050001 0.022367 234 197 56 1
0.067102 0.050001 0.022367 226 204 105 1
-0.069588 0.050001 0.019882 226 204 106 1
-0.067102 0.050001 0.019882 234 197 56 1
-0.064617 0.050001 0.019882 234 197 57 1
-0.062132 0.050001 0.019882 235 198 57 1
-0.059647 0.050001 0.019882 235 198 58 1
-0.057161 0.050001 0.019882 236 199 58 1
-0.054676 0.050001 0.019882 236 199 59 1
-0.052191 0.050001 0.019882 237 200 59 1
-0.049705 0.050001 0.019882 237 200 60 1
-0.047220 0.050001 0.019882 238 201 60 1
-0.044735 0.050001 0.019882 239 202 61 1
-0.042250 0.050001 0.019882 239 202 61 1
-0.039764 0.050001 0.019882 240 203 62 1
-0.037279 0.050001 0.019882 240 203 62 1
-0.034794 0.050001 0.019882 241 204 63 1
-0.032309 0.050001 0.019882 241 204 63 1
-0.029823 0.050001 0.019882 242 205 64 1
-0.027396 0.049040 0.019925 160 128 3 1
-0.025084 0.045818 0.020067 160 128 3 1
-0.022738 0.042549 0.020211 160 128 3 1
-0.020358 0.039233 0.020358 160 128 3 1
-0.017943 0.035868 0.020507 160 128 3 1
-0.015493 0.032454 0.020657 160 128 3 1
-0.013007 0.028989 0.020811 160 128 3 1
-0.010483 0.025473 0.020966 160 128 3 1
-0.007921 0.021903 0.021124 160 128 3 1
-0.005321 0.018280 0.021284 160 128 3 1
-0.002681 0.014601 0.021446 160 128 3 1
0.000000 0.013701 0.021486 160 128 3 1
0.002665 0.017392 0.021323 160 128 3 1
0.005291 0.021028 0.021162 160 128 3 1
0.007877 0.024609 0.021004 160 128 3 1
0.010424 0.028137 0.020848 160 128 3 1
0.012934 0.031613 0.020695 160 128 3 1
0.015407 0.035038 0.020543 160 128 3 1
0.017845 0.038414 0.020394 160 128 3 1
0.020247 0.041741 0.020247 160 128 3 1
0.022615 0.045020 0.020102 160 128 3 1
0.024949 0.048253 0.019959 160 128 3 1
0.027338 0.050001 0.019882 242 205 64 1
0.029823 0.050001 0.019882 241 204 63 1
0.032309 0.050001 0.019882 241 204 63 1
0.034794 0.050001 0.019882 240 203 62 1
0.037279 0.050001 0.019882 240 203 62 1
0.039764 0.050001 0.019882 239 202 61 1
0.042250 0.050001 0.019882 239 202 61 1
0.044735 0.050001 0.019882 238 201 60 1
0.047220 0.050001 0.019882 238 201 60 1
0.049705 0.050001 0.019882 237 200 59 1
0.052191 0.050001 0.019882 237 200 59 1
0.054676 0.050001 0.019882 236 199 58 1
0.057161 0.050001 0.019882 236 199 58 1
0.059647 0.050001 0.019882 235 198 57 1
0.062132 0.050001 0.019882 234 197 57 1
0.064617 0.050001 0.019882 234 197 56 1
0.067102 0.050001 0.019882 226 204 106 1
-0.069588 0.050001 0.017397 227 205 106 1
-0.067102 0.050001 0.017397 234 197 56 1
-0.064617 0.050001 0.017397 235 198 57 1
-0.062132 0.050001 0.017397 235 198 57 1
-0.059647 0.050001 0.017397 236 199 58 1
-0.057161 0.050001 0.017397 236 199 58 1
-0.054676 0.050001 0.017397 237 200 59 1
-0.052191 0.050001 0.017397 237 200 59 1
-0.049705 0.050001 0.017397 238 201 60 1
-0.047220 0.050001 0.017397 238 201 60 1
-0.044735 0.050001 0.017397 239 202 61 1
-0.042250 0.050001 0.017397 239 202 61 1
-0.039764 0.050001 0.017397 240 203 62 1
-0.037279 0.050001 0.017397 240 203 63 1
-0.034794 0.050001 0.017397 241 204 63 1
-0.032309 0.050001 0.017397 241 204 64 1
-0.029823 0.050001 0.017397 242 205 64 1
-0.027396 0.049040 0.017434 160 128 3 1
-0.025084 0.045818 0.017559 160 128 3 1
-0.022738 0.042549 0.017685 160 128 3 1
-0.020358 0.039233 0.017813 160 128 3 1
-0.017943 0.035868 0.017943 160 128 3 1
-0.015493 0.032454 0.018075 160 128 3 1
-0.013007 0.028989 0.018209 160 128 3 1
-0.010483 0.025473 0.018345 160 128 3 1
-0.007921 0.021903 0.018483 160 128 3 1
-0.005321 0.018280 0.018623 160 128 3 1
-0.002681 0.014601 0.018766 160 128 3 1
0.000000 0.013701 0.018800 160 128 3 1
0.002665 0.017392 0.018658 160 128 3 1
0.005291 0.021028 0.018517 160 128 3 1
0.007877 0.024609 0.018379 160 128 3 1
0.010424 0.028137 0.018242 160 128 3 1
0.012934 0.031613 0.018108 160 128 3 1
0.015407 0.035038 0.017975 160 128 3 1
0.017845 0.038414 0.017845 160 128 3 1
0.020247 0.041741 0.017716 160 128 3 1
0.022615 0.045020 0.017589 160 128 3 1
0.024949 0.048253 0.017465 160 128 3 1
0.027338 0.050001 0.017397 242 205 64 1
0.029823 0.050001 0.017397 241 204 64 1
0.032309 0.050001 0.017397 241 204 63 1
0.034794 0.050001 0.017397 240 203 63 1
0.037279 0.050001 0.017397 240 203 62 1
0.039764 0.050001 0.017397 239 202 62 1
0.042250 0.050001 0.017397 239 202 61 1
0.044735 0.050001 0.017397 238 201 61 1
0.047220 0.050001 0.017397 238 201 60 1
0.049705 0.050001 0.017397 237 200 60 1
0.052191 0.050001 0.017397 237 200 59 1
0.054676 0.050001 0.017397 236 199 58 1
0.057161 0.050001 0.017397 236 199 58 1
0.059647 0.050001 0.017397 235 198 57 1
0.062132 0.050001 0.017397 235 198 57 1
0.064617 0.050001 0.017397 234 197 56 1
0.067102 0.050001 0.017397 227 205 106 1
-0.069588 0.050001 0.014912 227 205 106 1
-0.067102 0.050001 0.014912 234 197 56 1
-0.064617 0.050001 0.014912 235 198 57 1
-0.062132 0.050001 0.014912 235 198 57 1
-0.059647 0.050001 0.014912 236 199 58 1
-0.057161 0.050001 0.014912 236 199 58 1
-0.054676 0.050001 0.014912 237 200 59 1
-0.052191 0.050001 0.014912 237 200 60 1
-0.049705 0.050001 0.014912 238 201 60 1
-0.047220 0.050001 0.014912 238 201 61 1
-0.044735 0.050001 0.014912 239 202 61 1
-0.042250 0.050001 0.014912 239 202 62 1
-0.039764 0.050001 0.014912 240 203 62 1
-0.037279 0.050001 0.014912 241 204 63 1
-0.034794 0.050001 0.014912 241 204 63 1
-0.032309 0.050001 0.014912 242 205 64 1
-0.029823 0.050001 0.014912 242 205 64 1
-0.027396 0.049040 0.014943 160 128 3 1
-0.025084 0.045818 0.015050 160 128 3 1
-0.022738 0.042549 0.015159 160 128 3 1
-0.020358 0.039233 0.015268 160 128 3 1
-0.017943 0.035868 0.015380 160 128 3 1
-0.015493 0.032454 0.015493 160 128 3 1
-0.013007 0.028989 0.015608 160 128 3 1
-0.010483 0.025473 0.015724 160 128 3 1
-0.007921 0.021903 0.015843 160 128 3 1
-0.005321 0.018280 0.015963 160 128 3 1
-0.002681 0.014601 0.016085 160 128 3 1
0.000000 0.013701 0.016115 160 128 3 1
0.002665 0.017392 0.015992 160 128 3 1
0.005291 0.021028 0.015872 160 128 3 1
0.007877 0.024609 0.015753 160 128 3 1
0.010424 0.028137 0.015636 160 128 3 1
0.012934 0.031613 0.015521 160 128 3 1
0.015407 0.035038 0.015407 160 128 3 1
0.017845 0.038414 0.015296 160 128 3 1
0.020247 0.041741 0.015185 160 128 3 1
0.022615 0.045020 0.015077 160 128 3 1
0.024949 0.048253 0.014970 160 128 3 1
0.027338 0.050001 0.014912 242 205 64 1
0.029823 0.050001 0.014912 242 205 64 1
0.032309 0.050001 0.014912 241 204 63 1
0.034794 0.050001 0.014912 241 204 63 1
0.037279 0.050001 0.014912 240 203 62 1
0.039764 0.050001 0.014912 240 203 62 1
0.042250 0.050001 0.014912 239 202 61 1
0.044735 0.050001 0.014912 239 202 61 1
0.047220 0.050001 0.014912 238 201 60 1
0.049705 0.050001 0.014912 237 200 60 1
0.052191 0.050001 0.014912 237 200 59 1
0.054676 0.050001 0.014912 236 199 59 1
0.057161 0.050001 0.014912 236 199 58 1
0.059647 0.050001 0.014912 235 198 58 1
0.062132 0.050001 0.014912 235 198 57 1
0.064617 0.050001 0.014912 234 197 56 1
0.067102 0.050001 0.014912 227 205 106 1
-0.069588 0.050001 0.012426 227 205 106 1
-0.067102 0.050001 0.012426 234 197 57 1
-0.064617 0.050001 0.012426 235 198 57 1
-0.062132 0.050001 0.012426 235 198 58 1
-0.059647 0.050001 0.012426 236 199 58 1
-0.057161 0.050001 0.012426 236 199 59 1
-0.054676 0.050001 0.012426 237 200 59 1
-0.052191 0.050001 0.012426 238 200 60 1
-0.049705 0.050001 0.012426 238 201 60 1
-0.047220 0.050001 0.012426 239 202 61 1
-0.044735 0.050001 0.012426 239 202 61 1
-0.042250 0.050001 0.012426 240 203 62 1
-0.039764 0.050001 0.012426 240 203 62 1
-0.037279 0.050001 0.012426 241 204 63 1
-0.034794 0.050001 0.012426 241 204 63 1
-0.032309 0.050001 0.012426 242 205 64 1
-0.029823 0.050001 0.012426 242 205 64 1
-0.027396 0.049040 0.012453 160 128 3 1
-0.025084 0.045818 0.012542 160 128 3 1
-0.022738 0.042549 0.012632 160 128 3 1
-0.020358 0.039233 0.012724 160 128 3 1
-0.017943 0.035868 0.012817 160 128 3 1
-0.015493 0.032454 0.012911 160 128 3 1
-0.013007 0.028989 0.013007 160 128 3 1
-0.010483 0.025473 0.013104 160 128 3 1
-0.007921 0.021903 0.013202 160 128 3 1
-0.005321 0.018280 0.013302 160 128 3 1
-0.002681 0.014601 0.013404 160 128 3 1
0.000000 0.013701 0.013429 160 128 3 1
0.002665 0.017392 0.013327 160 128 3 1
0.005291 0.021028 0.013226 160 128 3 1
0.007877 0.024609 0.013128 160 128 3 1
0.010424 0.028137 0.013030 160 128 3 1
0.012934 0.031613 0.012934 160 128 3 1
0.015407 0.035038 0.012840 160 128 3 1
0.017845 0.038414 0.012746 160 128 3 1
0.020247 0.041741 0.012654 160 128 3 1
0.022615 0.045020 0.012564 160 128 3 1
0.024949 0.048253 0.012475 160 128 3 1
0.027338 0.050001 0.012426 242 205 65 1
0.029823 0.050001 0.012426 242 205 64 1
0.032309 0.050001 0.012426 241 204 64 1
0.034794 0.050001 0.012426 241 204 63 1
0.037279 0.050001 0.012426 240 203 63 1
0.039764 0.050001 0.012426 240 203 62 1
0.042250 0.050001 0.012426 239 202 61 1
0.044735 0.050001 0.012426 239 202 61 1
0.047220 0.050001 0.012426 238 201 60 1
0.049705 0.050001 0.012426 238 201 60 1
0.052191 0.050001 0.012426 237 200 59 1
0.054676 0.050001 0.012426 237 200 59 1
0.057161 0.050001 0.012426 236 199 58 1
0.059647 0.050001 0.012426 236 198 58 1
0.062132 0.050001 0.012426 235 198 57 1
0.064617 0.050001 0.012426 234 197 57 1
0.067102 0.050001 0.012426 227 205 106 1
-0.069588 0.050001 0.009941 226 205 106 1
-0.067102 0.050001 0.009941 235 198 57 1
-0.064617 0.050001 0.009941 235 198 57 1
-0.062132 0.050001 0.009941 236 199 58 1
-0.059647 0.050001 0.009941 236 199 58 1
-0.057161 0.050001 0.009941 237 200 59 1
-0.054676 0.050001 0.009941 237 200 59 1
-0.052191 0.050001 0.009941 238 201 60 1
-0.049705 0.050001 0.009941 238 201 60 1
-0.047220 0.050001 0.009941 239 202 61 1
-0.044735 0.050001 0.009941 239 202 62 1
-0.042250 0.050001 0.009941 240 203 62 1
-0.039764 0.050001 0.009941 240 203 63 1
-0.037279 0.050001 0.009941 241 204 63 1
-0.034794 0.050001 0.009941 241 204 64 1
-0.032309 0.050001 0.009941 242 205 64 1
-0.029823 0.050001 0.009941 243 206 65 1
-0.027396 0.049040 0.009962 160 128 3 1
-0.025084 0.045818 0.010034 160 128 3 1
-0.022738 0.042549 0.010106 160 128 3 1
-0.020358 0.039233 0.010179 160 128 3 1
-0.017943 0.035868 0.010253 160 128 3 1
-0.015493 0.032454 0.010329 160 128 3 1
-0.013007 0.028989 0.010405 160 128 3 1
-0.010483 0.025473 0.010483 160 128 3 1
-0.007921 0.021903 0.010562 160 128 3 1
-0.005321 0.018280 0.010642 160 128 3 1
-0.002681 0.014601 0.010723 160 128 3 1
0.000000 0.013701 0.010743 160 128 3 1
0.002665 0.017392 0.010661 160 128 3 1
0.005291 0.021028 0.010581 160 128 3 1
0.007877 0.024609 0.010502 160 128 3 1
0.010424 0.028137 0.010424 160 128 3 1
0.012934 0.031613 0.010347 160 128 3 1
0.015407 0.035038 0.010272 160 128 3 1
0.017845 0.038414 0.010197 160 128 3 1
0.020247 0.041741 0.010124 160 128 3 1
0.022615 0.045020 0.010051 160 128 3 1
0.024949 0.048253 0.009980 160 128 3 1
0.027338 0.050001 0.009941 243 206 65 1
0.029823 0.050001 0.009941 242 205 64 1
0.032309 0.050001 0.009941 242 205 64 1
0.034794 0.050001 0.009941 241 204 63 1
0.037279 0.050001 0.009941 241 203 63 1
0.039764 0.050001 0.009941 240 203 62 1
0.042250 0.050001 0.009941 239 202 62 1
0.044735 0.050001 0.009941 239 202 61 1
0.047220 0.050001 0.009941 238 201 61 1
0.049705 0.050001 0.009941 238 201 60 1
0.052191 0.050001 0.009941 237 200 59 1
0.054676 0.050001 0.009941 237 200 59 1
0.057161 0.050001 0.009941 236 199 58 1
0.059647 0.050001 0.009941 236 199 58 1
0.062132 0.050001 0.009941 235 198 57 1
0.064617 0.050001 0.009941 235 198 57 1
0.067102 0.050001 0.009941 226 205 106 1
-0.069588 0.050001 0.007456 226 205 106 1
-0.067102 0.050001 0.007456 235 198 57 1
-0.064617 0.050001 0.007456 235 198 57 1
-0.062132 0.050001 0.007456 236 199 58 1
-0.059647 0.050001 0.007456 236 199 59 1
-0.057161 0.050001 0.007456 237 200 59 1
-0.054676 0.050001 0.007456 237 200 60 1
-0.052191 0.050001 0.007456 238 201 60 1
-0.049705 0.050001 0.007456 238 201 61 1
-0.047220 0.050001 0.007456 239 202 61 1
-0.044735 0.050001 0.007456 240 203 62 1
-0.042250 0.050001 0.007456 240 203 62 1
-0.039764 0.050001 0.007456 241 204 63 1
-0.037279 0.050001 0.007456 241 204 63 1
-0.034794 0.050001 0.007456 242 205 64 1
-0.032309 0.050001 0.007456 242 205 64 1
-0.029823 0.050001 0.007456 243 206 65 1
-0.027396 0.049040 0.007472 160 128 3 1
-0.025084 0.045818 0.007525 160 128 3 1
-0.022738 0.042549 0.007579 160 128 3 1
-0.020358 0.039233 0.007634 160 128 3 1
-0.017943 0.035868 0.007690 160 128 3 1
-0.015493 0.032454 0.007747 160 128 3 1
-0.013007 0.028989 0.007804 160 128 3 1
-0.010483 0.025473 0.007862 160 128 3 1
-0.007921 0.021903 0.007921 160 128 3 1
-0.005321 0.018280 0.007981 160 128 3 1
-0.002681 0.014601 0.008042 160 128 3 1
0.000000 0.013701 0.008057 160 128 3 1
0.002665 0.017392 0.007996 160 128 3 1
0.005291 0.021028 0.007936 160 128 3 1
0.007877 0.024609 0.007877 160 128 3 1
0.010424 0.028137 0.007818 160 128 3 1
0.012934 0.031613 0.007760 160 128 3 1
0.015407 0.035038 0.007704 160 128 3 1
0.017845 0.038414 0.007648 160 128 3 1
0.020247 0.041741 0.007593 160 128 3 1
0.022615 0.045020 0.007538 160 128 3 1
0.024949 0.048253 0.007485 160 128 3 1
0.027338 0.050001 0.007456 243 206 65 1
0.029823 0.050001 0.007456 242 205 64 1
0.032309 0.050001 0.007456 242 205 64 1
0.034794 0.050001 0.007456 241 204 63 1
0.037279 0.050001 0.007456 241 204 63 1
0.039764 0.050001 0.007456 240 203 62 1
0.042250 0.050001 0.007456 240 203 62 1
0.044735 0.050001 0.007456 239 202 61 1
0.047220 0.050001 0.007456 239 202 61 1
0.049705 0.050001 0.007456 238 201 60 1
0.052191 0.050001 0.007456 237 200 60 1
0.054676 0.050001 0.007456 237 200 59 1
0.057161 0.050001 0.007456 236 199 59 1
0.059647 0.050001 0.007456 236 199 58 1
0.062132 0.050001 0.007456 235 198 58 1
0.064617 0.050001 0.007456 235 198 57 1
0.067102 0.050001 0.007456 226 205 106 1
-0.069588 0.050001 0.004971 226 205 106 1
-0.067102 0.050001 0.004971 235 198 57 1
-0.064617 0.050001 0.004971 235 198 58 1
-0.062132 0.050001 0.004971 236 199 58 1
-0.059647 0.050001 0.004971 236 199 59 1
-0.057161 0.050001 0.004971 237 200 59 1
-0.054676 0.050001 0.004971 238 201 60 1
-0.052191 0.050001 0.004971 238 201 60 1
-0.049705 0.050001 0.004971 239 202 61 1
-0.047220 0.050001 0.004971 239 202 61 1
-0.044735 0.050001 0.004971 240 203 62 1
-0.042250 0.050001 0.004971 240 203 62 1
-0.039764 0.050001 0.004971 241 204 63 1
-0.037279 0.050001 0.004971 241 204 64 1
-0.034794 0.050001 0.004971 242 205 64 1
-0.032309 0.050001 0.004971 242 205 65 1
-0.029823 0.050001 0.004971 243 206 65 1
-0.027396 0.049040 0.004981 160 128 3 1
-0.025084 0.045818 0.005017 160 128 3 1
-0.022738 0.042549 0.005053 160 128 3 1
-0.020358 0.039233 0.005089 160 128 3 1
-0.017943 0.035868 0.005127 160 128 3 1
-0.015493 0.032454 0.005164 160 128 3 1
-0.013007 0.028989 0.005203 160 128 3 1
-0.010483 0.025473 0.005241 160 128 3 1
-0.007921 0.021903 0.005281 160 128 3 1
-0.005321 0.018280 0.005321 160 128 3 1
-0.002681 0.014601 0.005362 160 128 3 1
0.000000 0.013701 0.005372 160 128 3 1
0.002665 0.017392 0.005331 160 128 3 1
0.005291 0.021028 0.005291 160 128 3 1
0.007877 0.024609 0.005251 160 128 3 1
0.010424 0.028137 0.005212 160 128 3 1
0.012934 0.031613 0.005174 160 128 3 1
0.015407 0.035038 0.005136 160 128 3 1
0.017845 0.038414 0.005099 160 128 3 1
0.020247 0.041741 0.005062 160 128 3 1
0.022615 0.045020 0.005026 160 128 3 1
0.024949 0.048253 0.004990 160 128 3 1
0.027338 0.050001 0.004971 243 206 65 1
0.029823 0.050001 0.004971 242 205 65 1
0.032309 0.050001 0.004971 242 205 64 1
0.034794 0.050001 0.004971 241 204 64 1
0.037279 0.050001 0.004971 241 204 63 1
0.039764 0.050001 0.004971 240 203 63 1
0.042250 0.050001 0.004971 240 203 62 1
0.044735 0.050001 0.004971 239 202 61 1
0.047220 0.050001 0.004971 239 202 61 1
0.049705 0.050001 0.004971 238 201 60 1
0.052191 0.050001 0.004971 238 201 60 1
0.054676 0.050001 0.004971 237 200 59 1
0.057161 0.050001 0.004971 237 200 59 1
